# .PCD v0.7 - Point Cloud Data file format
VERSION 0.7
FIELDS x y z
SIZE 4 4 4
TYPE F F F
COUNT 1 1 1
WIDTH 1475
HEIGHT 1
VIEWPOINT 0 0 0 1 0 0 0
POINTS 1475
DATA ascii
0.48082605 0.5342595 1.0925564
0.48082605 0.5342595 1.2925564
0.48082605 0.5342595 1.4925565
0.48082605 0.5342595 1.6925564
0.48082605 0.5342595 1.8925564
0.48082605 0.5342595 2.0925562
0.48082605 0.5342595 2.2925563
0.48082605 0.5342595 2.4925563
0.48082605 0.5342595 2.6925564
0.48082605 0.5342595 2.8925562
0.48082605 0.5342595 3.0925562
0.48082605 0.5342595 3.2925563
0.48082605 0.5342595 3.4925563
0.48082605 0.5342595 3.6925564
0.48082605 0.5342595 3.8925562
0.48082605 0.5342595 4.0925565
0.48082605 0.5342595 4.2925563
0.48082605 0.5342595 4.4925561
0.48082605 0.5342595 4.6925564
0.48082605 0.5342595 4.8925562
0.48082605 0.5342595 5.0925565
0.48082605 0.5342595 5.2925563
0.48082605 0.5342595 5.4925561
0.48082605 0.5342595 5.6925564
0.48082605 0.5342595 5.8925562
0.48082605 0.5342595 6.0925565
0.48082605 0.5342595 6.2925563
0.48082605 0.5342595 6.4925561
0.48082605 0.5342595 6.6925564
0.48082605 0.5342595 6.8925562
0.48082605 0.5342595 7.0925565
0.48082605 0.5342595 7.2925563
0.48082605 0.5342595 7.4925561
0.48082605 0.5342595 7.6925564
0.48082605 0.5342595 7.8925562
0.48082605 0.5342595 8.092557
0.48082605 0.5342595 8.2925568
0.48082605 0.5342595 8.4925566
0.48082605 0.5342595 8.6925564
0.48082605 0.5342595 8.8925571
0.48082605 0.5342595 9.092557
0.42069337 -0.26347736 0.29255641
0.43572652 -0.064043142 0.29255641
0.45075971 0.13539107 0.29255641
0.46579286 0.33482531 0.29255641
0.48082605 0.5342595 0.29255641
0.49585921 0.73369372 0.29255641
0.51089239 0.93312794 0.29255641
0.52592558 1.132562 0.29255641
0.54095876 1.3319963 0.29255641
0.55599189 1.5314305 0.29255641
0.57102507 1.7308648 0.29255641
0.58605826 1.930299 0.29255641
0.60109144 2.1297333 0.29255641
0.61612457 2.3291674 0.29255641
0.63115776 2.5286016 0.29255641
0.49585921 0.73369372 0.29255641
0.29642501 0.74872684 0.29255641
0.096990794 0.76376003 0.29255641
-0.10244343 0.77879322 0.29255641
-0.30187762 0.7938264 0.29255641
-0.50131184 0.80885953 0.29255641
-0.70074606 0.82389271 0.29255641
-0.90018022 0.8389259 0.29255641
-1.0996145 0.85395908 0.29255641
-1.2990487 0.86899221 0.29255641
-1.4984828 0.88402539 0.29255641
-1.6979171 0.89905858 0.29255641
-1.8973514 0.91409177 0.29255641
-2.0967853 0.92912489 0.29255641
-2.2962196 0.94415808 0.29255641
-2.4956539 0.95919126 0.29255641
-2.6950881 0.97422445 0.29255641
-2.8945224 0.98925763 0.29255641
-3.0939565 1.0042908 0.29255641
-3.2933908 1.0193239 0.29255641
-3.492825 1.0343571 0.29255641
-3.6922591 1.0493903 0.29255641
-3.8916936 1.0644234 0.29255641
-4.0911274 1.0794566 0.29255641
-4.2905622 1.0944898 0.29255641
-4.489996 1.1095229 0.29255641
-4.6894302 1.1245562 0.29255641
-4.8888645 1.1395893 0.29255641
-5.0882983 1.1546224 0.29255641
-5.2877331 1.1696557 0.29255641
0.49585921 0.73369372 0.29255641
0.49585921 0.73369372 0.49255639
0.49585921 0.73369372 0.69255638
0.49585921 0.73369372 0.89255643
0.49585921 0.73369372 1.0925564
0.49585921 0.73369372 1.2925564
0.49585921 0.73369372 1.4925565
0.49585921 0.73369372 1.6925564
0.49585921 0.73369372 1.8925564
0.49585921 0.73369372 2.0925562
0.49585921 0.73369372 2.2925563
0.49585921 0.73369372 2.4925563
0.49585921 0.73369372 2.6925564
0.49585921 0.73369372 2.8925562
0.49585921 0.73369372 3.0925562
0.49585921 0.73369372 3.2925563
0.49585921 0.73369372 3.4925563
0.49585921 0.73369372 3.6925564
0.49585921 0.73369372 3.8925562
0.49585921 0.73369372 4.0925565
0.49585921 0.73369372 4.2925563
0.49585921 0.73369372 4.4925561
0.49585921 0.73369372 4.6925564
0.49585921 0.73369372 4.8925562
0.49585921 0.73369372 5.0925565
0.49585921 0.73369372 5.2925563
0.49585921 0.73369372 5.4925561
0.49585921 0.73369372 5.6925564
0.49585921 0.73369372 5.8925562
0.49585921 0.73369372 6.0925565
0.49585921 0.73369372 6.2925563
0.49585921 0.73369372 6.4925561
0.49585921 0.73369372 6.6925564
0.49585921 0.73369372 6.8925562
0.49585921 0.73369372 7.0925565
0.49585921 0.73369372 7.2925563
0.49585921 0.73369372 7.4925561
0.49585921 0.73369372 7.6925564
0.49585921 0.73369372 7.8925562
0.49585921 0.73369372 8.092557
0.49585921 0.73369372 8.2925568
0.49585921 0.73369372 8.4925566
0.49585921 0.73369372 8.6925564
0.49585921 0.73369372 8.8925571
0.49585921 0.73369372 9.092557
0.42069337 -0.26347736 0.29255641
0.43572652 -0.064043142 0.29255641
0.45075971 0.13539107 0.29255641
0.46579286 0.33482531 0.29255641
0.48082605 0.5342595 0.29255641
0.49585921 0.73369372 0.29255641
0.51089239 0.93312794 0.29255641
0.52592558 1.132562 0.29255641
0.54095876 1.3319963 0.29255641
0.55599189 1.5314305 0.29255641
0.57102507 1.7308648 0.29255641
0.58605826 1.930299 0.29255641
0.60109144 2.1297333 0.29255641
0.61612457 2.3291674 0.29255641
0.63115776 2.5286016 0.29255641
0.51089239 0.93312794 0.29255641
0.31145817 0.94816113 0.29255641
0.11202397 0.96319431 0.29255641
-0.087410256 0.97822744 0.29255641
-0.28684446 0.99326062 0.29255641
-0.48627865 1.0082937 0.29255641
-0.68571293 1.023327 0.29255641
-0.88514704 1.0383601 0.29255641
-1.0845813 1.0533934 0.29255641
-1.2840154 1.0684265 0.29255641
-1.4834497 1.0834596 0.29255641
-1.682884 1.0984929 0.29255641
-1.8823183 1.113526 0.29255641
-2.0817523 1.1285591 0.29255641
-2.2811866 1.1435924 0.29255641
-2.4806209 1.1586255 0.29255641
-2.6800549 1.1736587 0.29255641
-2.8794892 1.1886919 0.29255641
-3.0789232 1.203725 0.29255641
-3.2783575 1.2187582 0.29255641
-3.4777918 1.2337914 0.29255641
-3.6772258 1.2488245 0.29255641
-3.8766603 1.2638577 0.29255641
-4.0760942 1.2788908 0.29255641
-4.2755289 1.2939241 0.29255641
-4.4749627 1.3089572 0.29255641
-4.674397 1.3239903 0.29255641
-4.8738313 1.3390236 0.29255641
-5.0732656 1.3540567 0.29255641
-5.2726998 1.36909 0.29255641
0.51089239 0.93312794 0.29255641
0.51089239 0.93312794 0.49255639
0.51089239 0.93312794 0.69255638
0.51089239 0.93312794 0.89255643
0.51089239 0.93312794 1.0925564
0.51089239 0.93312794 1.2925564
0.51089239 0.93312794 1.4925565
0.51089239 0.93312794 1.6925564
0.51089239 0.93312794 1.8925564
0.51089239 0.93312794 2.0925562
0.51089239 0.93312794 2.2925563
0.51089239 0.93312794 2.4925563
0.51089239 0.93312794 2.6925564
0.51089239 0.93312794 2.8925562
0.51089239 0.93312794 3.0925562
0.51089239 0.93312794 3.2925563
0.51089239 0.93312794 3.4925563
0.51089239 0.93312794 3.6925564
0.51089239 0.93312794 3.8925562
0.51089239 0.93312794 4.0925565
0.51089239 0.93312794 4.2925563
0.51089239 0.93312794 4.4925561
0.51089239 0.93312794 4.6925564
0.51089239 0.93312794 4.8925562
0.51089239 0.93312794 5.0925565
0.51089239 0.93312794 5.2925563
0.51089239 0.93312794 5.4925561
0.51089239 0.93312794 5.6925564
0.51089239 0.93312794 5.8925562
0.51089239 0.93312794 6.0925565
0.51089239 0.93312794 6.2925563
0.51089239 0.93312794 6.4925561
0.51089239 0.93312794 6.6925564
0.51089239 0.93312794 6.8925562
0.51089239 0.93312794 7.0925565
0.51089239 0.93312794 7.2925563
0.51089239 0.93312794 7.4925561
0.51089239 0.93312794 7.6925564
0.51089239 0.93312794 7.8925562
0.51089239 0.93312794 8.092557
0.51089239 0.93312794 8.2925568
0.51089239 0.93312794 8.4925566
0.51089239 0.93312794 8.6925564
0.51089239 0.93312794 8.8925571
0.51089239 0.93312794 9.092557
0.42069337 -0.26347736 0.29255641
0.43572652 -0.064043142 0.29255641
0.45075971 0.13539107 0.29255641
0.46579286 0.33482531 0.29255641
0.48082605 0.5342595 0.29255641
0.49585921 0.73369372 0.29255641
0.51089239 0.93312794 0.29255641
0.52592558 1.132562 0.29255641
0.54095876 1.3319963 0.29255641
0.55599189 1.5314305 0.29255641
0.57102507 1.7308648 0.29255641
0.58605826 1.930299 0.29255641
0.60109144 2.1297333 0.29255641
0.61612457 2.3291674 0.29255641
0.63115776 2.5286016 0.29255641
0.52592558 1.132562 0.29255641
0.32649136 1.1475953 0.29255641
0.12705714 1.1626284 0.29255641
-0.072377093 1.1776617 0.29255641
-0.27181128 1.1926948 0.29255641
-0.4712455 1.2077279 0.29255641
-0.67067975 1.2227612 0.29255641
-0.87011391 1.2377943 0.29255641
-1.0695481 1.2528274 0.29255641
-1.2689823 1.2678607 0.29255641
-1.4684166 1.2828938 0.29255641
-1.6678507 1.297927 0.29255641
-1.867285 1.3129601 0.29255641
-2.0667191 1.3279933 0.29255641
-2.2661533 1.3430265 0.29255641
-2.4655876 1.3580596 0.29255641
-2.6650219 1.3730928 0.29255641
-2.8644562 1.388126 0.29255641
-3.0638902 1.4031591 0.29255641
-3.2633243 1.4181924 0.29255641
-3.4627585 1.4332255 0.29255641
-3.6621926 1.4482586 0.29255641
-3.8616271 1.4632919 0.29255641
-4.0610614 1.478325 0.29255641
-4.2604957 1.4933583 0.29255641
-4.4599295 1.5083914 0.29255641
-4.6593637 1.5234245 0.29255641
-4.858798 1.5384578 0.29255641
-5.0582323 1.5534909 0.29255641
-5.2576666 1.5685241 0.29255641
0.52592558 1.132562 0.29255641
0.52592558 1.132562 0.49255639
0.52592558 1.132562 0.69255638
0.52592558 1.132562 0.89255643
0.52592558 1.132562 1.0925564
0.52592558 1.132562 1.2925564
0.52592558 1.132562 1.4925565
0.52592558 1.132562 1.6925564
0.52592558 1.132562 1.8925564
0.52592558 1.132562 2.0925562
0.52592558 1.132562 2.2925563
0.52592558 1.132562 2.4925563
0.52592558 1.132562 2.6925564
0.52592558 1.132562 2.8925562
0.52592558 1.132562 3.0925562
0.52592558 1.132562 3.2925563
0.52592558 1.132562 3.4925563
0.52592558 1.132562 3.6925564
0.52592558 1.132562 3.8925562
0.52592558 1.132562 4.0925565
0.52592558 1.132562 4.2925563
0.52592558 1.132562 4.4925561
0.52592558 1.132562 4.6925564
0.52592558 1.132562 4.8925562
0.52592558 1.132562 5.0925565
0.52592558 1.132562 5.2925563
0.52592558 1.132562 5.4925561
0.52592558 1.132562 5.6925564
0.52592558 1.132562 5.8925562
0.52592558 1.132562 6.0925565
0.52592558 1.132562 6.2925563
0.52592558 1.132562 6.4925561
0.52592558 1.132562 6.6925564
0.52592558 1.132562 6.8925562
0.52592558 1.132562 7.0925565
0.52592558 1.132562 7.2925563
0.52592558 1.132562 7.4925561
0.52592558 1.132562 7.6925564
0.52592558 1.132562 7.8925562
0.52592558 1.132562 8.092557
0.52592558 1.132562 8.2925568
0.52592558 1.132562 8.4925566
0.52592558 1.132562 8.6925564
0.52592558 1.132562 8.8925571
0.52592558 1.132562 9.092557
0.42069337 -0.26347736 0.29255641
0.43572652 -0.064043142 0.29255641
0.45075971 0.13539107 0.29255641
0.46579286 0.33482531 0.29255641
0.48082605 0.5342595 0.29255641
0.49585921 0.73369372 0.29255641
0.51089239 0.93312794 0.29255641
0.52592558 1.132562 0.29255641
0.54095876 1.3319963 0.29255641
0.55599189 1.5314305 0.29255641
0.57102507 1.7308648 0.29255641
0.58605826 1.930299 0.29255641
0.60109144 2.1297333 0.29255641
0.61612457 2.3291674 0.29255641
0.63115776 2.5286016 0.29255641
0.54095876 1.3319963 0.29255641
0.34152451 1.3470296 0.29255641
0.14209031 1.3620627 0.29255641
-0.057343915 1.3770958 0.29255641
-0.25677812 1.3921291 0.29255641
-0.45621231 1.4071622 0.29255641
-0.65564656 1.4221953 0.29255641
-0.85508072 1.4372286 0.29255641
-1.054515 1.4522617 0.29255641
-1.253949 1.4672949 0.29255641
-1.4533833 1.4823281 0.29255641
-1.6528176 1.4973612 0.29255641
-1.8522519 1.5123944 0.29255641
-2.0516858 1.5274276 0.29255641
-2.2511201 1.5424607 0.29255641
-2.4505544 1.5574939 0.29255641
-2.6499887 1.5725271 0.29255641
-2.8494229 1.5875603 0.29255641
-3.048857 1.6025934 0.29255641
-3.2482913 1.6176265 0.29255641
-3.4477255 1.6326598 0.29255641
-3.6471596 1.6476929 0.29255641
-3.8465939 1.6627262 0.29255641
-4.0460281 1.6777593 0.29255641
-4.2454624 1.6927924 0.29255641
-4.4448967 1.7078257 0.29255641
-4.6443305 1.7228588 0.29255641
-4.8437648 1.7378919 0.29255641
-5.0431991 1.7529252 0.29255641
-5.2426333 1.7679583 0.29255641
0.54095876 1.3319963 0.29255641
0.54095876 1.3319963 0.49255639
0.54095876 1.3319963 0.69255638
0.54095876 1.3319963 0.89255643
0.54095876 1.3319963 1.0925564
0.54095876 1.3319963 1.2925564
0.54095876 1.3319963 1.4925565
0.54095876 1.3319963 1.6925564
0.54095876 1.3319963 1.8925564
0.54095876 1.3319963 2.0925562
0.54095876 1.3319963 2.2925563
0.54095876 1.3319963 2.4925563
0.54095876 1.3319963 2.6925564
0.54095876 1.3319963 2.8925562
0.54095876 1.3319963 3.0925562
0.54095876 1.3319963 3.2925563
0.54095876 1.3319963 3.4925563
0.54095876 1.3319963 3.6925564
0.54095876 1.3319963 3.8925562
0.54095876 1.3319963 4.0925565
0.54095876 1.3319963 4.2925563
0.54095876 1.3319963 4.4925561
0.54095876 1.3319963 4.6925564
0.54095876 1.3319963 4.8925562
0.54095876 1.3319963 5.0925565
0.54095876 1.3319963 5.2925563
0.54095876 1.3319963 5.4925561
0.54095876 1.3319963 5.6925564
0.54095876 1.3319963 5.8925562
0.54095876 1.3319963 6.0925565
0.54095876 1.3319963 6.2925563
0.54095876 1.3319963 6.4925561
0.54095876 1.3319963 6.6925564
0.54095876 1.3319963 6.8925562
0.54095876 1.3319963 7.0925565
0.54095876 1.3319963 7.2925563
0.54095876 1.3319963 7.4925561
0.54095876 1.3319963 7.6925564
0.54095876 1.3319963 7.8925562
0.54095876 1.3319963 8.092557
0.54095876 1.3319963 8.2925568
0.54095876 1.3319963 8.4925566
0.54095876 1.3319963 8.6925564
0.54095876 1.3319963 8.8925571
0.54095876 1.3319963 9.092557
0.42069337 -0.26347736 0.29255641
0.43572652 -0.064043142 0.29255641
0.45075971 0.13539107 0.29255641
0.46579286 0.33482531 0.29255641
0.48082605 0.5342595 0.29255641
0.49585921 0.73369372 0.29255641
0.51089239 0.93312794 0.29255641
0.52592558 1.132562 0.29255641
0.54095876 1.3319963 0.29255641
0.55599189 1.5314305 0.29255641
0.57102507 1.7308648 0.29255641
0.58605826 1.930299 0.29255641
0.60109144 2.1297333 0.29255641
0.61612457 2.3291674 0.29255641
0.63115776 2.5286016 0.29255641
0.55599189 1.5314305 0.29255641
0.3565577 1.5464636 0.29255641
0.15712348 1.5614969 0.29255641
-0.042310752 1.57653 0.29255641
-0.24174495 1.5915632 0.29255641
-0.44117916 1.6065964 0.29255641
-0.64061338 1.6216295 0.29255641
-0.84004754 1.6366627 0.29255641
-1.0394818 1.6516958 0.29255641
-1.2389159 1.666729 0.29255641
-1.4383502 1.6817622 0.29255641
-1.6377845 1.6967953 0.29255641
-1.8372188 1.7118286 0.29255641
-2.0366528 1.7268617 0.29255641
-2.2360871 1.7418948 0.29255641
-2.4355211 1.7569281 0.29255641
-2.6349554 1.7719612 0.29255641
-2.8343897 1.7869945 0.29255641
-3.0338237 1.8020276 0.29255641
-3.233258 1.8170607 0.29255641
-3.4326923 1.832094 0.29255641
-3.6321263 1.8471271 0.29255641
-3.8315609 1.8621602 0.29255641
-4.0309949 1.8771935 0.29255641
-4.2304292 1.8922266 0.29255641
-4.4298635 1.9072597 0.29255641
-4.6292973 1.9222929 0.29255641
-4.828732 1.9373261 0.29255641
-5.0281658 1.9523593 0.29255641
-5.2276006 1.9673924 0.29255641
0.55599189 1.5314305 0.29255641
0.55599189 1.5314305 0.49255639
0.55599189 1.5314305 0.69255638
0.55599189 1.5314305 0.89255643
0.55599189 1.5314305 1.0925564
0.55599189 1.5314305 1.2925564
0.55599189 1.5314305 1.4925565
0.55599189 1.5314305 1.6925564
0.55599189 1.5314305 1.8925564
0.55599189 1.5314305 2.0925562
0.55599189 1.5314305 2.2925563
0.55599189 1.5314305 2.4925563
0.55599189 1.5314305 2.6925564
0.55599189 1.5314305 2.8925562
0.55599189 1.5314305 3.0925562
0.55599189 1.5314305 3.2925563
0.55599189 1.5314305 3.4925563
0.55599189 1.5314305 3.6925564
0.55599189 1.5314305 3.8925562
0.55599189 1.5314305 4.0925565
0.55599189 1.5314305 4.2925563
0.55599189 1.5314305 4.4925561
0.55599189 1.5314305 4.6925564
0.55599189 1.5314305 4.8925562
0.55599189 1.5314305 5.0925565
0.55599189 1.5314305 5.2925563
0.55599189 1.5314305 5.4925561
0.55599189 1.5314305 5.6925564
0.55599189 1.5314305 5.8925562
0.55599189 1.5314305 6.0925565
0.55599189 1.5314305 6.2925563
0.55599189 1.5314305 6.4925561
0.55599189 1.5314305 6.6925564
0.55599189 1.5314305 6.8925562
0.55599189 1.5314305 7.0925565
0.55599189 1.5314305 7.2925563
0.55599189 1.5314305 7.4925561
0.55599189 1.5314305 7.6925564
0.55599189 1.5314305 7.8925562
0.55599189 1.5314305 8.092557
0.55599189 1.5314305 8.2925568
0.55599189 1.5314305 8.4925566
0.55599189 1.5314305 8.6925564
0.55599189 1.5314305 8.8925571
0.55599189 1.5314305 9.092557
0.42069337 -0.26347736 0.29255641
0.43572652 -0.064043142 0.29255641
0.45075971 0.13539107 0.29255641
0.46579286 0.33482531 0.29255641
0.48082605 0.5342595 0.29255641
0.49585921 0.73369372 0.29255641
0.51089239 0.93312794 0.29255641
0.52592558 1.132562 0.29255641
0.54095876 1.3319963 0.29255641
0.55599189 1.5314305 0.29255641
0.57102507 1.7308648 0.29255641
0.58605826 1.930299 0.29255641
0.60109144 2.1297333 0.29255641
0.61612457 2.3291674 0.29255641
0.63115776 2.5286016 0.29255641
0.57102507 1.7308648 0.29255641
0.37159085 1.7458979 0.29255641
0.17215665 1.7609311 0.29255641
-0.027277576 1.7759643 0.29255641
-0.22671178 1.7909974 0.29255641
-0.42614597 1.8060306 0.29255641
-0.62558025 1.8210638 0.29255641
-0.82501435 1.8360969 0.29255641
-1.0244486 1.8511301 0.29255641
-1.2238828 1.8661633 0.29255641
-1.4233171 1.8811965 0.29255641
-1.6227512 1.8962296 0.29255641
-1.8221855 1.9112628 0.29255641
-2.0216196 1.926296 0.29255641
-2.2210538 1.9413291 0.29255641
-2.4204881 1.9563622 0.29255641
-2.6199224 1.9713955 0.29255641
-2.8193567 1.9864286 0.29255641
-3.0187905 2.0014617 0.29255641
-3.2182248 2.016495 0.29255641
-3.417659 2.0315282 0.29255641
-3.6170931 2.0465612 0.29255641
-3.8165276 2.0615945 0.29255641
-4.0159616 2.0766277 0.29255641
-4.2153959 2.091661 0.29255641
-4.4148302 2.106694 0.29255641
-4.614264 2.1217272 0.29255641
-4.8136988 2.1367605 0.29255641
-5.0131326 2.1517935 0.29255641
-5.2125673 2.1668267 0.29255641
0.57102507 1.7308648 0.29255641
0.57102507 1.7308648 0.49255639
0.57102507 1.7308648 0.69255638
0.57102507 1.7308648 0.89255643
0.57102507 1.7308648 1.0925564
0.57102507 1.7308648 1.2925564
0.57102507 1.7308648 1.4925565
0.57102507 1.7308648 1.6925564
0.57102507 1.7308648 1.8925564
0.57102507 1.7308648 2.0925562
0.57102507 1.7308648 2.2925563
0.57102507 1.7308648 2.4925563
0.57102507 1.7308648 2.6925564
0.57102507 1.7308648 2.8925562
0.57102507 1.7308648 3.0925562
0.57102507 1.7308648 3.2925563
0.57102507 1.7308648 3.4925563
0.57102507 1.7308648 3.6925564
0.57102507 1.7308648 3.8925562
0.57102507 1.7308648 4.0925565
0.57102507 1.7308648 4.2925563
0.57102507 1.7308648 4.4925561
0.57102507 1.7308648 4.6925564
0.57102507 1.7308648 4.8925562
0.57102507 1.7308648 5.0925565
0.57102507 1.7308648 5.2925563
0.57102507 1.7308648 5.4925561
0.57102507 1.7308648 5.6925564
0.57102507 1.7308648 5.8925562
0.57102507 1.7308648 6.0925565
0.57102507 1.7308648 6.2925563
0.57102507 1.7308648 6.4925561
0.57102507 1.7308648 6.6925564
0.57102507 1.7308648 6.8925562
0.57102507 1.7308648 7.0925565
0.57102507 1.7308648 7.2925563
0.57102507 1.7308648 7.4925561
0.57102507 1.7308648 7.6925564
0.57102507 1.7308648 7.8925562
0.57102507 1.7308648 8.092557
0.57102507 1.7308648 8.2925568
0.57102507 1.7308648 8.4925566
0.57102507 1.7308648 8.6925564
0.57102507 1.7308648 8.8925571
0.57102507 1.7308648 9.092557
0.42069337 -0.26347736 0.29255641
0.43572652 -0.064043142 0.29255641
0.45075971 0.13539107 0.29255641
0.46579286 0.33482531 0.29255641
0.48082605 0.5342595 0.29255641
0.49585921 0.73369372 0.29255641
0.51089239 0.93312794 0.29255641
0.52592558 1.132562 0.29255641
0.54095876 1.3319963 0.29255641
0.55599189 1.5314305 0.29255641
0.57102507 1.7308648 0.29255641
0.58605826 1.930299 0.29255641
0.60109144 2.1297333 0.29255641
0.61612457 2.3291674 0.29255641
0.63115776 2.5286016 0.29255641
0.58605826 1.930299 0.29255641
0.38662404 1.9453322 0.29255641
0.18718983 1.9603653 0.29255641
-0.012244401 1.9753985 0.29255641
-0.21167859 1.9904317 0.29255641
-0.41111279 2.0054648 0.29255641
-0.61054707 2.020498 0.29255641
-0.80998117 2.0355313 0.29255641
-1.0094154 2.0505643 0.29255641
-1.2088495 2.0655975 0.29255641
-1.4082838 2.0806308 0.29255641
-1.6077181 2.0956638 0.29255641
-1.8071524 2.110697 0.29255641
-2.0065863 2.1257303 0.29255641
-2.2060206 2.1407633 0.29255641
-2.4054549 2.1557965 0.29255641
-2.6048892 2.1708298 0.29255641
-2.8043234 2.185863 0.29255641
-3.0037575 2.200896 0.29255641
-3.2031918 2.2159293 0.29255641
-3.402626 2.2309625 0.29255641
-3.6020598 2.2459955 0.29255641
-3.8014944 2.2610288 0.29255641
-4.0009284 2.276062 0.29255641
-4.2003632 2.291095 0.29255641
-4.399797 2.3061283 0.29255641
-4.5992308 2.3211615 0.29255641
-4.7986655 2.3361945 0.29255641
-4.9980993 2.3512278 0.29255641
-5.1975341 2.366261 0.29255641
0.58605826 1.930299 0.29255641
0.58605826 1.930299 0.49255639
0.58605826 1.930299 0.69255638
0.58605826 1.930299 0.89255643
0.58605826 1.930299 1.0925564
0.58605826 1.930299 1.2925564
0.58605826 1.930299 1.4925565
0.58605826 1.930299 1.6925564
0.58605826 1.930299 1.8925564
0.58605826 1.930299 2.0925562
0.58605826 1.930299 2.2925563
0.58605826 1.930299 2.4925563
0.58605826 1.930299 2.6925564
0.58605826 1.930299 2.8925562
0.58605826 1.930299 3.0925562
0.58605826 1.930299 3.2925563
0.58605826 1.930299 3.4925563
0.58605826 1.930299 3.6925564
0.58605826 1.930299 3.8925562
0.58605826 1.930299 4.0925565
0.58605826 1.930299 4.2925563
0.58605826 1.930299 4.4925561
0.58605826 1.930299 4.6925564
0.58605826 1.930299 4.8925562
0.58605826 1.930299 5.0925565
0.58605826 1.930299 5.2925563
0.58605826 1.930299 5.4925561
0.58605826 1.930299 5.6925564
0.58605826 1.930299 5.8925562
0.58605826 1.930299 6.0925565
0.58605826 1.930299 6.2925563
0.58605826 1.930299 6.4925561
0.58605826 1.930299 6.6925564
0.58605826 1.930299 6.8925562
0.58605826 1.930299 7.0925565
0.58605826 1.930299 7.2925563
0.58605826 1.930299 7.4925561
0.58605826 1.930299 7.6925564
0.58605826 1.930299 7.8925562
0.58605826 1.930299 8.092557
0.58605826 1.930299 8.2925568
0.58605826 1.930299 8.4925566
0.58605826 1.930299 8.6925564
0.58605826 1.930299 8.8925571
0.58605826 1.930299 9.092557
0.42069337 -0.26347736 0.29255641
0.43572652 -0.064043142 0.29255641
0.45075971 0.13539107 0.29255641
0.46579286 0.33482531 0.29255641
0.48082605 0.5342595 0.29255641
0.49585921 0.73369372 0.29255641
0.51089239 0.93312794 0.29255641
0.52592558 1.132562 0.29255641
0.54095876 1.3319963 0.29255641
0.55599189 1.5314305 0.29255641
0.57102507 1.7308648 0.29255641
0.58605826 1.930299 0.29255641
0.60109144 2.1297333 0.29255641
0.61612457 2.3291674 0.29255641
0.63115776 2.5286016 0.29255641
0.60109144 2.1297333 0.29255641
0.40165722 2.1447663 0.29255641
0.202223 2.1597996 0.29255641
0.0027887737 2.1748328 0.29255641
-0.19664542 2.1898658 0.29255641
-0.39607963 2.2048991 0.29255641
-0.59551388 2.2199323 0.29255641
-0.79494804 2.2349656 0.29255641
-0.99438226 2.2499986 0.29255641
-1.1938164 2.2650318 0.29255641
-1.3932507 2.2800651 0.29255641
-1.5926849 2.2950981 0.29255641
-1.7921191 2.3101313 0.29255641
-1.9915532 2.3251646 0.29255641
-2.1909873 2.3401976 0.29255641
-2.3904216 2.3552308 0.29255641
-2.5898559 2.3702641 0.29255641
-2.7892902 2.3852971 0.29255641
-2.9887242 2.4003303 0.29255641
-3.1881585 2.4153636 0.29255641
-3.3875928 2.4303966 0.29255641
-3.5870268 2.4454298 0.29255641
-3.7864614 2.460463 0.29255641
-3.9858954 2.4754963 0.29255641
-4.1853299 2.4905293 0.29255641
-4.3847637 2.5055625 0.29255641
-4.584198 2.5205958 0.29255641
-4.7836323 2.5356288 0.29255641
-4.9830666 2.550662 0.29255641
-5.1825008 2.5656953 0.29255641
0.60109144 2.1297333 0.29255641
0.60109144 2.1297333 0.49255639
0.60109144 2.1297333 0.69255638
0.60109144 2.1297333 0.89255643
0.60109144 2.1297333 1.0925564
0.60109144 2.1297333 1.2925564
0.60109144 2.1297333 1.4925565
0.60109144 2.1297333 1.6925564
0.60109144 2.1297333 1.8925564
0.60109144 2.1297333 2.0925562
0.60109144 2.1297333 2.2925563
0.60109144 2.1297333 2.4925563
0.60109144 2.1297333 2.6925564
0.60109144 2.1297333 2.8925562
0.60109144 2.1297333 3.0925562
0.60109144 2.1297333 3.2925563
0.60109144 2.1297333 3.4925563
0.60109144 2.1297333 3.6925564
0.60109144 2.1297333 3.8925562
0.60109144 2.1297333 4.0925565
0.60109144 2.1297333 4.2925563
0.60109144 2.1297333 4.4925561
0.60109144 2.1297333 4.6925564
0.60109144 2.1297333 4.8925562
0.60109144 2.1297333 5.0925565
0.60109144 2.1297333 5.2925563
0.60109144 2.1297333 5.4925561
0.60109144 2.1297333 5.6925564
0.60109144 2.1297333 5.8925562
0.60109144 2.1297333 6.0925565
0.60109144 2.1297333 6.2925563
0.60109144 2.1297333 6.4925561
0.60109144 2.1297333 6.6925564
0.60109144 2.1297333 6.8925562
0.60109144 2.1297333 7.0925565
0.60109144 2.1297333 7.2925563
0.60109144 2.1297333 7.4925561
0.60109144 2.1297333 7.6925564
0.60109144 2.1297333 7.8925562
0.60109144 2.1297333 8.092557
0.60109144 2.1297333 8.2925568
0.60109144 2.1297333 8.4925566
0.60109144 2.1297333 8.6925564
0.60109144 2.1297333 8.8925571
0.60109144 2.1297333 9.092557
0.42069337 -0.26347736 0.29255641
0.43572652 -0.064043142 0.29255641
0.45075971 0.13539107 0.29255641
0.46579286 0.33482531 0.29255641
0.48082605 0.5342595 0.29255641
0.49585921 0.73369372 0.29255641
0.51089239 0.93312794 0.29255641
0.52592558 1.132562 0.29255641
0.54095876 1.3319963 0.29255641
0.55599189 1.5314305 0.29255641
0.57102507 1.7308648 0.29255641
0.58605826 1.930299 0.29255641
0.60109144 2.1297333 0.29255641
0.61612457 2.3291674 0.29255641
0.63115776 2.5286016 0.29255641
0.61612457 2.3291674 0.29255641
0.41669038 2.3442004 0.29255641
0.21725616 2.3592336 0.29255641
0.01782193 2.3742669 0.29255641
-0.18161227 2.3892999 0.29255641
-0.38104647 2.4043331 0.29255641
-0.58048069 2.4193664 0.29255641
-0.77991486 2.4343994 0.29255641
-0.97934914 2.4494326 0.29255641
-1.1787833 2.4644659 0.29255641
-1.3782175 2.4794989 0.29255641
-1.5776517 2.4945321 0.29255641
-1.777086 2.5095654 0.29255641
-1.9765201 2.5245986 0.29255641
-2.1759543 2.5396316 0.29255641
-2.3753886 2.5546649 0.29255641
-2.5748229 2.5696981 0.29255641
-2.7742572 2.5847311 0.29255641
-2.973691 2.5997643 0.29255641
-3.1731253 2.6147976 0.29255641
-3.3725595 2.6298306 0.29255641
-3.5719936 2.6448638 0.29255641
-3.7714281 2.6598971 0.29255641
-3.9708622 2.6749301 0.29255641
-4.1702967 2.6899633 0.29255641
-4.3697305 2.7049966 0.29255641
-4.5691648 2.7200296 0.29255641
-4.768599 2.7350628 0.29255641
-4.9680333 2.7500961 0.29255641
-5.1674676 2.7651293 0.29255641
0.61612457 2.3291674 0.29255641
0.61612457 2.3291674 0.49255639
0.61612457 2.3291674 0.69255638
0.61612457 2.3291674 0.89255643
0.61612457 2.3291674 1.0925564
0.61612457 2.3291674 1.2925564
0.61612457 2.3291674 1.4925565
0.61612457 2.3291674 1.6925564
0.61612457 2.3291674 1.8925564
0.61612457 2.3291674 2.0925562
0.61612457 2.3291674 2.2925563
0.61612457 2.3291674 2.4925563
0.61612457 2.3291674 2.6925564
0.61612457 2.3291674 2.8925562
0.61612457 2.3291674 3.0925562
0.61612457 2.3291674 3.2925563
0.61612457 2.3291674 3.4925563
0.61612457 2.3291674 3.6925564
0.61612457 2.3291674 3.8925562
0.61612457 2.3291674 4.0925565
0.61612457 2.3291674 4.2925563
0.61612457 2.3291674 4.4925561
0.61612457 2.3291674 4.6925564
0.61612457 2.3291674 4.8925562
0.61612457 2.3291674 5.0925565
0.61612457 2.3291674 5.2925563
0.61612457 2.3291674 5.4925561
0.61612457 2.3291674 5.6925564
0.61612457 2.3291674 5.8925562
0.61612457 2.3291674 6.0925565
0.61612457 2.3291674 6.2925563
0.61612457 2.3291674 6.4925561
0.61612457 2.3291674 6.6925564
0.61612457 2.3291674 6.8925562
0.61612457 2.3291674 7.0925565
0.61612457 2.3291674 7.2925563
0.61612457 2.3291674 7.4925561
0.61612457 2.3291674 7.6925564
0.61612457 2.3291674 7.8925562
0.61612457 2.3291674 8.092557
0.61612457 2.3291674 8.2925568
0.61612457 2.3291674 8.4925566
0.61612457 2.3291674 8.6925564
0.61612457 2.3291674 8.8925571
0.61612457 2.3291674 9.092557
0.42069337 -0.26347736 0.29255641
0.43572652 -0.064043142 0.29255641
0.45075971 0.13539107 0.29255641
0.46579286 0.33482531 0.29255641
0.48082605 0.5342595 0.29255641
0.49585921 0.73369372 0.29255641
0.51089239 0.93312794 0.29255641
0.52592558 1.132562 0.29255641
0.54095876 1.3319963 0.29255641
0.55599189 1.5314305 0.29255641
0.57102507 1.7308648 0.29255641
0.58605826 1.930299 0.29255641
0.60109144 2.1297333 0.29255641
0.61612457 2.3291674 0.29255641
0.63115776 2.5286016 0.29255641
0.63115776 2.5286016 0.29255641
0.43172354 2.5436347 0.29255641
0.23228933 2.5586679 0.29255641
0.032855105 2.5737011 0.29255641
-0.1665791 2.5887341 0.29255641
-0.36601329 2.6037674 0.29255641
-0.56544757 2.6188006 0.29255641
-0.76488167 2.6338336 0.29255641
-0.96431595 2.6488669 0.29255641
-1.1637501 2.6639001 0.29255641
-1.3631843 2.6789331 0.29255641
-1.5626186 2.6939664 0.29255641
-1.7620529 2.7089996 0.29255641
-1.9614868 2.7240326 0.29255641
-2.1609211 2.7390659 0.29255641
-2.3603554 2.7540991 0.29255641
-2.5597897 2.7691324 0.29255641
-2.7592239 2.7841654 0.29255641
-2.958658 2.7991986 0.29255641
-3.1580923 2.8142319 0.29255641
-3.3575265 2.8292649 0.29255641
-3.5569603 2.8442981 0.29255641
-3.7563949 2.8593314 0.29255641
-3.9558289 2.8743644 0.29255641
-4.1552634 2.8893976 0.29255641
-4.3546977 2.9044309 0.29255641
-4.5541315 2.9194639 0.29255641
-4.7535658 2.9344971 0.29255641
-4.9530001 2.9495304 0.29255641
-5.1524343 2.9645636 0.29255641
0.63115776 2.5286016 0.29255641
0.63115776 2.5286016 0.49255639
0.63115776 2.5286016 0.69255638
0.63115776 2.5286016 0.89255643
0.63115776 2.5286016 1.0925564
0.63115776 2.5286016 1.2925564
0.63115776 2.5286016 1.4925565
0.63115776 2.5286016 1.6925564
0.63115776 2.5286016 1.8925564
0.63115776 2.5286016 2.0925562
0.63115776 2.5286016 2.2925563
0.63115776 2.5286016 2.4925563
0.63115776 2.5286016 2.6925564
0.63115776 2.5286016 2.8925562
0.63115776 2.5286016 3.0925562
0.63115776 2.5286016 3.2925563
0.63115776 2.5286016 3.4925563
0.63115776 2.5286016 3.6925564
0.63115776 2.5286016 3.8925562
0.63115776 2.5286016 4.0925565
0.63115776 2.5286016 4.2925563
0.63115776 2.5286016 4.4925561
0.63115776 2.5286016 4.6925564
0.63115776 2.5286016 4.8925562
0.63115776 2.5286016 5.0925565
0.63115776 2.5286016 5.2925563
0.63115776 2.5286016 5.4925561
0.63115776 2.5286016 5.6925564
0.63115776 2.5286016 5.8925562
0.63115776 2.5286016 6.0925565
0.63115776 2.5286016 6.2925563
0.63115776 2.5286016 6.4925561
0.63115776 2.5286016 6.6925564
0.63115776 2.5286016 6.8925562
0.63115776 2.5286016 7.0925565
0.63115776 2.5286016 7.2925563
0.63115776 2.5286016 7.4925561
0.63115776 2.5286016 7.6925564
0.63115776 2.5286016 7.8925562
0.63115776 2.5286016 8.092557
0.63115776 2.5286016 8.2925568
0.63115776 2.5286016 8.4925566
0.63115776 2.5286016 8.6925564
0.63115776 2.5286016 8.8925571
0.63115776 2.5286016 9.092557
0.42069337 -0.26347736 0.29255641
0.22125915 -0.24844418 0.29255641
0.021824939 -0.23341101 0.29255641
-0.17760928 -0.21837784 0.29255641
-0.37704349 -0.20334467 0.29255641
-0.57647771 -0.1883115 0.29255641
-0.77591193 -0.17327832 0.29255641
-0.97534609 -0.15824516 0.29255641
-1.1747804 -0.14321198 0.29255641
-1.3742144 -0.12817882 0.29255641
-1.5736487 -0.11314564 0.29255641
-1.773083 -0.098112464 0.29255641
-1.9725173 -0.083079293 0.29255641
-2.1719513 -0.068046138 0.29255641
-2.3713856 -0.05301296 0.29255641
-2.5708199 -0.037979785 0.29255641
-2.7702541 -0.022946611 0.29255641
-2.9696882 -0.0079134367 0.29255641
-3.1691222 0.0071197203 0.29255641
-3.3685565 0.022152895 0.29255641
-3.5679908 0.037186071 0.29255641
-3.7674248 0.052219227 0.29255641
-3.9668593 0.06725242 0.29255641
-4.1662931 0.082285576 0.29255641
-4.3657279 0.097318769 0.29255641
-4.5651617 0.11235192 0.29255641
-4.764596 0.12738508 0.29255641
-4.9640303 0.14241828 0.29255641
-5.1634645 0.15745144 0.29255641
-5.3628988 0.17248462 0.29255641
0.42069337 -0.26347736 0.29255641
0.42069337 -0.26347736 0.49255639
0.42069337 -0.26347736 0.69255638
0.42069337 -0.26347736 0.89255643
0.42069337 -0.26347736 1.0925564
0.42069337 -0.26347736 1.2925564
0.42069337 -0.26347736 1.4925565
0.42069337 -0.26347736 1.6925564
0.42069337 -0.26347736 1.8925564
0.42069337 -0.26347736 2.0925562
0.42069337 -0.26347736 2.2925563
0.42069337 -0.26347736 2.4925563
0.42069337 -0.26347736 2.6925564
0.42069337 -0.26347736 2.8925562
0.42069337 -0.26347736 3.0925562
0.42069337 -0.26347736 3.2925563
0.42069337 -0.26347736 3.4925563
0.42069337 -0.26347736 3.6925564
0.42069337 -0.26347736 3.8925562
0.42069337 -0.26347736 4.0925565
0.42069337 -0.26347736 4.2925563
0.42069337 -0.26347736 4.4925561
0.42069337 -0.26347736 4.6925564
0.42069337 -0.26347736 4.8925562
0.42069337 -0.26347736 5.0925565
0.42069337 -0.26347736 5.2925563
0.42069337 -0.26347736 5.4925561
0.42069337 -0.26347736 5.6925564
0.42069337 -0.26347736 5.8925562
0.42069337 -0.26347736 6.0925565
0.42069337 -0.26347736 6.2925563
0.42069337 -0.26347736 6.4925561
0.42069337 -0.26347736 6.6925564
0.42069337 -0.26347736 6.8925562
0.42069337 -0.26347736 7.0925565
0.42069337 -0.26347736 7.2925563
0.42069337 -0.26347736 7.4925561
0.42069337 -0.26347736 7.6925564
0.42069337 -0.26347736 7.8925562
0.42069337 -0.26347736 8.092557
0.42069337 -0.26347736 8.2925568
0.42069337 -0.26347736 8.4925566
0.42069337 -0.26347736 8.6925564
0.42069337 -0.26347736 8.8925571
0.42069337 -0.26347736 9.092557
0.42069337 -0.26347736 0.29255641
0.22125915 -0.24844418 0.29255641
0.021824939 -0.23341101 0.29255641
-0.17760928 -0.21837784 0.29255641
-0.37704349 -0.20334467 0.29255641
-0.57647771 -0.1883115 0.29255641
-0.77591193 -0.17327832 0.29255641
-0.97534609 -0.15824516 0.29255641
-1.1747804 -0.14321198 0.29255641
-1.3742144 -0.12817882 0.29255641
-1.5736487 -0.11314564 0.29255641
-1.773083 -0.098112464 0.29255641
-1.9725173 -0.083079293 0.29255641
-2.1719513 -0.068046138 0.29255641
-2.3713856 -0.05301296 0.29255641
-2.5708199 -0.037979785 0.29255641
-2.7702541 -0.022946611 0.29255641
-2.9696882 -0.0079134367 0.29255641
-3.1691222 0.0071197203 0.29255641
-3.3685565 0.022152895 0.29255641
-3.5679908 0.037186071 0.29255641
-3.7674248 0.052219227 0.29255641
-3.9668593 0.06725242 0.29255641
-4.1662931 0.082285576 0.29255641
-4.3657279 0.097318769 0.29255641
-4.5651617 0.11235192 0.29255641
-4.764596 0.12738508 0.29255641
-4.9640303 0.14241828 0.29255641
-5.1634645 0.15745144 0.29255641
-5.3628988 0.17248462 0.29255641
0.22125915 -0.24844418 0.29255641
0.22125915 -0.24844418 0.49255639
0.22125915 -0.24844418 0.69255638
0.22125915 -0.24844418 0.89255643
0.22125915 -0.24844418 1.0925564
0.22125915 -0.24844418 1.2925564
0.22125915 -0.24844418 1.4925565
0.22125915 -0.24844418 1.6925564
0.22125915 -0.24844418 1.8925564
0.22125915 -0.24844418 2.0925562
0.22125915 -0.24844418 2.2925563
0.22125915 -0.24844418 2.4925563
0.22125915 -0.24844418 2.6925564
0.22125915 -0.24844418 2.8925562
0.22125915 -0.24844418 3.0925562
0.22125915 -0.24844418 3.2925563
0.22125915 -0.24844418 3.4925563
0.22125915 -0.24844418 3.6925564
0.22125915 -0.24844418 3.8925562
0.22125915 -0.24844418 4.0925565
0.22125915 -0.24844418 4.2925563
0.22125915 -0.24844418 4.4925561
0.22125915 -0.24844418 4.6925564
0.22125915 -0.24844418 4.8925562
0.22125915 -0.24844418 5.0925565
0.22125915 -0.24844418 5.2925563
0.22125915 -0.24844418 5.4925561
0.22125915 -0.24844418 5.6925564
0.22125915 -0.24844418 5.8925562
0.22125915 -0.24844418 6.0925565
0.22125915 -0.24844418 6.2925563
0.22125915 -0.24844418 6.4925561
0.22125915 -0.24844418 6.6925564
0.22125915 -0.24844418 6.8925562
0.22125915 -0.24844418 7.0925565
0.22125915 -0.24844418 7.2925563
0.22125915 -0.24844418 7.4925561
0.22125915 -0.24844418 7.6925564
0.22125915 -0.24844418 7.8925562
0.22125915 -0.24844418 8.092557
0.22125915 -0.24844418 8.2925568
0.22125915 -0.24844418 8.4925566
0.22125915 -0.24844418 8.6925564
0.22125915 -0.24844418 8.8925571
0.22125915 -0.24844418 9.092557
0.42069337 -0.26347736 0.29255641
0.22125915 -0.24844418 0.29255641
0.021824939 -0.23341101 0.29255641
-0.17760928 -0.21837784 0.29255641
-0.37704349 -0.20334467 0.29255641
-0.57647771 -0.1883115 0.29255641
-0.77591193 -0.17327832 0.29255641
-0.97534609 -0.15824516 0.29255641
-1.1747804 -0.14321198 0.29255641
-1.3742144 -0.12817882 0.29255641
-1.5736487 -0.11314564 0.29255641
-1.773083 -0.098112464 0.29255641
-1.9725173 -0.083079293 0.29255641
-2.1719513 -0.068046138 0.29255641
-2.3713856 -0.05301296 0.29255641
-2.5708199 -0.037979785 0.29255641
-2.7702541 -0.022946611 0.29255641
-2.9696882 -0.0079134367 0.29255641
-3.1691222 0.0071197203 0.29255641
-3.3685565 0.022152895 0.29255641
-3.5679908 0.037186071 0.29255641
-3.7674248 0.052219227 0.29255641
-3.9668593 0.06725242 0.29255641
-4.1662931 0.082285576 0.29255641
-4.3657279 0.097318769 0.29255641
-4.5651617 0.11235192 0.29255641
-4.764596 0.12738508 0.29255641
-4.9640303 0.14241828 0.29255641
-5.1634645 0.15745144 0.29255641
-5.3628988 0.17248462 0.29255641
0.021824939 -0.23341101 0.29255641
0.021824939 -0.23341101 0.49255639
0.021824939 -0.23341101 0.69255638
0.021824939 -0.23341101 0.89255643
0.021824939 -0.23341101 1.0925564
0.021824939 -0.23341101 1.2925564
0.021824939 -0.23341101 1.4925565
0.021824939 -0.23341101 1.6925564
0.021824939 -0.23341101 1.8925564
0.021824939 -0.23341101 2.0925562
0.021824939 -0.23341101 2.2925563
0.021824939 -0.23341101 2.4925563
0.021824939 -0.23341101 2.6925564
0.021824939 -0.23341101 2.8925562
0.021824939 -0.23341101 3.0925562
0.021824939 -0.23341101 3.2925563
0.021824939 -0.23341101 3.4925563
0.021824939 -0.23341101 3.6925564
0.021824939 -0.23341101 3.8925562
0.021824939 -0.23341101 4.0925565
0.021824939 -0.23341101 4.2925563
0.021824939 -0.23341101 4.4925561
0.021824939 -0.23341101 4.6925564
0.021824939 -0.23341101 4.8925562
0.021824939 -0.23341101 5.0925565
0.021824939 -0.23341101 5.2925563
0.021824939 -0.23341101 5.4925561
0.021824939 -0.23341101 5.6925564
0.021824939 -0.23341101 5.8925562
0.021824939 -0.23341101 6.0925565
0.021824939 -0.23341101 6.2925563
0.021824939 -0.23341101 6.4925561
0.021824939 -0.23341101 6.6925564
0.021824939 -0.23341101 6.8925562
0.021824939 -0.23341101 7.0925565
0.021824939 -0.23341101 7.2925563
0.021824939 -0.23341101 7.4925561
0.021824939 -0.23341101 7.6925564
0.021824939 -0.23341101 7.8925562
0.021824939 -0.23341101 8.092557
0.021824939 -0.23341101 8.2925568
0.021824939 -0.23341101 8.4925566
0.021824939 -0.23341101 8.6925564
0.021824939 -0.23341101 8.8925571
0.021824939 -0.23341101 9.092557
0.42069337 -0.26347736 0.29255641
0.22125915 -0.24844418 0.29255641
0.021824939 -0.23341101 0.29255641
-0.17760928 -0.21837784 0.29255641
-0.37704349 -0.20334467 0.29255641
-0.57647771 -0.1883115 0.29255641
-0.77591193 -0.17327832 0.29255641
-0.97534609 -0.15824516 0.29255641
-1.1747804 -0.14321198 0.29255641
-1.3742144 -0.12817882 0.29255641
-1.5736487 -0.11314564 0.29255641
-1.773083 -0.098112464 0.29255641
-1.9725173 -0.083079293 0.29255641
-2.1719513 -0.068046138 0.29255641
-2.3713856 -0.05301296 0.29255641
-2.5708199 -0.037979785 0.29255641
-2.7702541 -0.022946611 0.29255641
-2.9696882 -0.0079134367 0.29255641
-3.1691222 0.0071197203 0.29255641
-3.3685565 0.022152895 0.29255641
-3.5679908 0.037186071 0.29255641
-3.7674248 0.052219227 0.29255641
-3.9668593 0.06725242 0.29255641
-4.1662931 0.082285576 0.29255641
-4.3657279 0.097318769 0.29255641
-4.5651617 0.11235192 0.29255641
-4.764596 0.12738508 0.29255641
-4.9640303 0.14241828 0.29255641
-5.1634645 0.15745144 0.29255641
-5.3628988 0.17248462 0.29255641
-0.17760928 -0.21837784 0.29255641
-0.17760928 -0.21837784 0.49255639
-0.17760928 -0.21837784 0.69255638
-0.17760928 -0.21837784 0.89255643
-0.17760928 -0.21837784 1.0925564
-0.17760928 -0.21837784 1.2925564
-0.17760928 -0.21837784 1.4925565
-0.17760928 -0.21837784 1.6925564
-0.17760928 -0.21837784 1.8925564
-0.17760928 -0.21837784 2.0925562
-0.17760928 -0.21837784 2.2925563
-0.17760928 -0.21837784 2.4925563
-0.17760928 -0.21837784 2.6925564
-0.17760928 -0.21837784 2.8925562
-0.17760928 -0.21837784 3.0925562
-0.17760928 -0.21837784 3.2925563
-0.17760928 -0.21837784 3.4925563
-0.17760928 -0.21837784 3.6925564
-0.17760928 -0.21837784 3.8925562
-0.17760928 -0.21837784 4.0925565
-0.17760928 -0.21837784 4.2925563
-0.17760928 -0.21837784 4.4925561
-0.17760928 -0.21837784 4.6925564
-0.17760928 -0.21837784 4.8925562
-0.17760928 -0.21837784 5.0925565
-0.17760928 -0.21837784 5.2925563
-0.17760928 -0.21837784 5.4925561
-0.17760928 -0.21837784 5.6925564
-0.17760928 -0.21837784 5.8925562
-0.17760928 -0.21837784 6.0925565
-0.17760928 -0.21837784 6.2925563
-0.17760928 -0.21837784 6.4925561
-0.17760928 -0.21837784 6.6925564
-0.17760928 -0.21837784 6.8925562
-0.17760928 -0.21837784 7.0925565
-0.17760928 -0.21837784 7.2925563
-0.17760928 -0.21837784 7.4925561
-0.17760928 -0.21837784 7.6925564
-0.17760928 -0.21837784 7.8925562
-0.17760928 -0.21837784 8.092557
-0.17760928 -0.21837784 8.2925568
-0.17760928 -0.21837784 8.4925566
-0.17760928 -0.21837784 8.6925564
-0.17760928 -0.21837784 8.8925571
-0.17760928 -0.21837784 9.092557
0.42069337 -0.26347736 0.29255641
0.22125915 -0.24844418 0.29255641
0.021824939 -0.23341101 0.29255641
-0.17760928 -0.21837784 0.29255641
-0.37704349 -0.20334467 0.29255641
-0.57647771 -0.1883115 0.29255641
-0.77591193 -0.17327832 0.29255641
-0.97534609 -0.15824516 0.29255641
-1.1747804 -0.14321198 0.29255641
-1.3742144 -0.12817882 0.29255641
-1.5736487 -0.11314564 0.29255641
-1.773083 -0.098112464 0.29255641
-1.9725173 -0.083079293 0.29255641
-2.1719513 -0.068046138 0.29255641
-2.3713856 -0.05301296 0.29255641
-2.5708199 -0.037979785 0.29255641
-2.7702541 -0.022946611 0.29255641
-2.9696882 -0.0079134367 0.29255641
-3.1691222 0.0071197203 0.29255641
-3.3685565 0.022152895 0.29255641
-3.5679908 0.037186071 0.29255641
-3.7674248 0.052219227 0.29255641
-3.9668593 0.06725242 0.29255641
-4.1662931 0.082285576 0.29255641
-4.3657279 0.097318769 0.29255641
-4.5651617 0.11235192 0.29255641
-4.764596 0.12738508 0.29255641
-4.9640303 0.14241828 0.29255641
-5.1634645 0.15745144 0.29255641
-5.3628988 0.17248462 0.29255641
-0.37704349 -0.20334467 0.29255641
-0.37704349 -0.20334467 0.49255639
-0.37704349 -0.20334467 0.69255638
-0.37704349 -0.20334467 0.89255643
-0.37704349 -0.20334467 1.0925564
-0.37704349 -0.20334467 1.2925564
-0.37704349 -0.20334467 1.4925565
-0.37704349 -0.20334467 1.6925564
-0.37704349 -0.20334467 1.8925564
-0.37704349 -0.20334467 2.0925562
-0.37704349 -0.20334467 2.2925563
-0.37704349 -0.20334467 2.4925563
-0.37704349 -0.20334467 2.6925564
-0.37704349 -0.20334467 2.8925562
-0.37704349 -0.20334467 3.0925562
-0.37704349 -0.20334467 3.2925563
-0.37704349 -0.20334467 3.4925563
-0.37704349 -0.20334467 3.6925564
-0.37704349 -0.20334467 3.8925562
-0.37704349 -0.20334467 4.0925565
-0.37704349 -0.20334467 4.2925563
-0.37704349 -0.20334467 4.4925561
-0.37704349 -0.20334467 4.6925564
-0.37704349 -0.20334467 4.8925562
-0.37704349 -0.20334467 5.0925565
-0.37704349 -0.20334467 5.2925563
-0.37704349 -0.20334467 5.4925561
-0.37704349 -0.20334467 5.6925564
-0.37704349 -0.20334467 5.8925562
-0.37704349 -0.20334467 6.0925565
-0.37704349 -0.20334467 6.2925563
-0.37704349 -0.20334467 6.4925561
-0.37704349 -0.20334467 6.6925564
-0.37704349 -0.20334467 6.8925562
-0.37704349 -0.20334467 7.0925565
-0.37704349 -0.20334467 7.2925563
-0.37704349 -0.20334467 7.4925561
-0.37704349 -0.20334467 7.6925564
-0.37704349 -0.20334467 7.8925562
-0.37704349 -0.20334467 8.092557
-0.37704349 -0.20334467 8.2925568
-0.37704349 -0.20334467 8.4925566
-0.37704349 -0.20334467 8.6925564
-0.37704349 -0.20334467 8.8925571
-0.37704349 -0.20334467 9.092557
0.42069337 -0.26347736 0.29255641
0.22125915 -0.24844418 0.29255641
0.021824939 -0.23341101 0.29255641
-0.17760928 -0.21837784 0.29255641
-0.37704349 -0.20334467 0.29255641
-0.57647771 -0.1883115 0.29255641
-0.77591193 -0.17327832 0.29255641
-0.97534609 -0.15824516 0.29255641
-1.1747804 -0.14321198 0.29255641
-1.3742144 -0.12817882 0.29255641
-1.5736487 -0.11314564 0.29255641
-1.773083 -0.098112464 0.29255641
-1.9725173 -0.083079293 0.29255641
-2.1719513 -0.068046138 0.29255641
-2.3713856 -0.05301296 0.29255641
-2.5708199 -0.037979785 0.29255641
-2.7702541 -0.022946611 0.29255641
-2.9696882 -0.0079134367 0.29255641
-3.1691222 0.0071197203 0.29255641
-3.3685565 0.022152895 0.29255641
-3.5679908 0.037186071 0.29255641
-3.7674248 0.052219227 0.29255641
-3.9668593 0.06725242 0.29255641
-4.1662931 0.082285576 0.29255641
-4.3657279 0.097318769 0.29255641
-4.5651617 0.11235192 0.29255641
-4.764596 0.12738508 0.29255641
-4.9640303 0.14241828 0.29255641
-5.1634645 0.15745144 0.29255641
-5.3628988 0.17248462 0.29255641
-0.57647771 -0.1883115 0.29255641
-0.57647771 -0.1883115 0.49255639
-0.57647771 -0.1883115 0.69255638
-0.57647771 -0.1883115 0.89255643
-0.57647771 -0.1883115 1.0925564
-0.57647771 -0.1883115 1.2925564
-0.57647771 -0.1883115 1.4925565
-0.57647771 -0.1883115 1.6925564
-0.57647771 -0.1883115 1.8925564
-0.57647771 -0.1883115 2.0925562
-0.57647771 -0.1883115 2.2925563
-0.57647771 -0.1883115 2.4925563
-0.57647771 -0.1883115 2.6925564
-0.57647771 -0.1883115 2.8925562
-0.57647771 -0.1883115 3.0925562
-0.57647771 -0.1883115 3.2925563
-0.57647771 -0.1883115 3.4925563
-0.57647771 -0.1883115 3.6925564
-0.57647771 -0.1883115 3.8925562
-0.57647771 -0.1883115 4.0925565
-0.57647771 -0.1883115 4.2925563
-0.57647771 -0.1883115 4.4925561
-0.57647771 -0.1883115 4.6925564
-0.57647771 -0.1883115 4.8925562
-0.57647771 -0.1883115 5.0925565
-0.57647771 -0.1883115 5.2925563
-0.57647771 -0.1883115 5.4925561
-0.57647771 -0.1883115 5.6925564
-0.57647771 -0.1883115 5.8925562
-0.57647771 -0.1883115 6.0925565
-0.57647771 -0.1883115 6.2925563
-0.57647771 -0.1883115 6.4925561
-0.57647771 -0.1883115 6.6925564
-0.57647771 -0.1883115 6.8925562
-0.57647771 -0.1883115 7.0925565
-0.57647771 -0.1883115 7.2925563
-0.57647771 -0.1883115 7.4925561
-0.57647771 -0.1883115 7.6925564
-0.57647771 -0.1883115 7.8925562
-0.57647771 -0.1883115 8.092557
-0.57647771 -0.1883115 8.2925568
-0.57647771 -0.1883115 8.4925566
-0.57647771 -0.1883115 8.6925564
-0.57647771 -0.1883115 8.8925571
-0.57647771 -0.1883115 9.092557
0.42069337 -0.26347736 0.29255641
0.22125915 -0.24844418 0.29255641
0.021824939 -0.23341101 0.29255641
-0.17760928 -0.21837784 0.29255641
-0.37704349 -0.20334467 0.29255641
-0.57647771 -0.1883115 0.29255641
-0.77591193 -0.17327832 0.29255641
-0.97534609 -0.15824516 0.29255641
-1.1747804 -0.14321198 0.29255641
-1.3742144 -0.12817882 0.29255641
-1.5736487 -0.11314564 0.29255641
-1.773083 -0.098112464 0.29255641
-1.9725173 -0.083079293 0.29255641
-2.1719513 -0.068046138 0.29255641
-2.3713856 -0.05301296 0.29255641
-2.5708199 -0.037979785 0.29255641
-2.7702541 -0.022946611 0.29255641
-2.9696882 -0.0079134367 0.29255641
-3.1691222 0.0071197203 0.29255641
-3.3685565 0.022152895 0.29255641
-3.5679908 0.037186071 0.29255641
-3.7674248 0.052219227 0.29255641
-3.9668593 0.06725242 0.29255641
-4.1662931 0.082285576 0.29255641
-4.3657279 0.097318769 0.29255641
-4.5651617 0.11235192 0.29255641
-4.764596 0.12738508 0.29255641
-4.9640303 0.14241828 0.29255641
-5.1634645 0.15745144 0.29255641
-5.3628988 0.17248462 0.29255641
-0.77591193 -0.17327832 0.29255641
-0.77591193 -0.17327832 0.49255639
-0.77591193 -0.17327832 0.69255638
-0.77591193 -0.17327832 0.89255643
-0.77591193 -0.17327832 1.0925564
-0.77591193 -0.17327832 1.2925564
-0.77591193 -0.17327832 1.4925565
-0.77591193 -0.17327832 1.6925564
-0.77591193 -0.17327832 1.8925564
-0.77591193 -0.17327832 2.0925562
-0.77591193 -0.17327832 2.2925563
-0.77591193 -0.17327832 2.4925563
-0.77591193 -0.17327832 2.6925564
-0.77591193 -0.17327832 2.8925562
-0.77591193 -0.17327832 3.0925562
-0.77591193 -0.17327832 3.2925563
-0.77591193 -0.17327832 3.4925563
-0.77591193 -0.17327832 3.6925564
-0.77591193 -0.17327832 3.8925562
-0.77591193 -0.17327832 4.0925565
-0.77591193 -0.17327832 4.2925563
-0.77591193 -0.17327832 4.4925561
-0.77591193 -0.17327832 4.6925564
-0.77591193 -0.17327832 4.8925562
-0.77591193 -0.17327832 5.0925565
-0.77591193 -0.17327832 5.2925563
-0.77591193 -0.17327832 5.4925561
-0.77591193 -0.17327832 5.6925564
-0.77591193 -0.17327832 5.8925562
-0.77591193 -0.17327832 6.0925565
-0.77591193 -0.17327832 6.2925563
-0.77591193 -0.17327832 6.4925561
-0.77591193 -0.17327832 6.6925564
-0.77591193 -0.17327832 6.8925562
-0.77591193 -0.17327832 7.0925565
-0.77591193 -0.17327832 7.2925563
-0.77591193 -0.17327832 7.4925561
-0.77591193 -0.17327832 7.6925564
-0.77591193 -0.17327832 7.8925562
-0.77591193 -0.17327832 8.092557
-0.77591193 -0.17327832 8.2925568
-0.77591193 -0.17327832 8.4925566
-0.77591193 -0.17327832 8.6925564
-0.77591193 -0.17327832 8.8925571
-0.77591193 -0.17327832 9.092557
0.42069337 -0.26347736 0.29255641
0.22125915 -0.24844418 0.29255641
0.021824939 -0.23341101 0.29255641
-0.17760928 -0.21837784 0.29255641
-0.37704349 -0.20334467 0.29255641
-0.57647771 -0.1883115 0.29255641
-0.77591193 -0.17327832 0.29255641
-0.97534609 -0.15824516 0.29255641
-1.1747804 -0.14321198 0.29255641
