# .PCD v0.7 - Point Cloud Data file format
VERSION 0.7
FIELDS x y z
SIZE 4 4 4
TYPE F F F
COUNT 1 1 1
WIDTH 1468
HEIGHT 1
VIEWPOINT 0 0 0 1 0 0 0
POINTS 1468
DATA ascii
0.44841239 -0.017705271 0.30228761
0.64663815 -0.044286255 0.30228761
0.84486395 -0.070867248 0.30228761
1.0430896 -0.097448222 0.30228761
1.2413155 -0.12402922 0.30228761
1.4395411 -0.15061019 0.30228761
1.637767 -0.17719118 0.30228761
1.8359927 -0.20377217 0.30228761
2.0342185 -0.23035318 0.30228761
2.232444 -0.25693414 0.30228761
2.43067 -0.28351513 0.30228761
-0.34449065 0.088618673 0.30228761
-0.31790966 0.28684443 0.30228761
-0.29132867 0.4850702 0.30228761
-0.26474768 0.68329597 0.30228761
-0.23816669 0.8815217 0.30228761
-0.21158572 1.0797474 0.30228761
-0.18500473 1.2779733 0.30228761
-0.15842374 1.4761989 0.30228761
-0.13184275 1.6744248 0.30228761
-0.10526177 1.8726505 0.30228761
-0.078680784 2.0708764 0.30228761
-0.05209979 2.2691021 0.30228761
-0.025518797 2.4673278 0.30228761
0.0010621633 2.6655533 0.30228761
0.027643155 2.8637793 0.30228761
0.054224148 3.062005 0.30228761
0.080805138 3.2602308 0.30228761
0.10738613 3.4584568 0.30228761
0.13396709 3.6566823 0.30228761
0.16054809 3.854908 0.30228761
0.18712908 4.053134 0.30228761
0.21371004 4.2513595 0.30228761
0.24029106 4.4495854 0.30228761
0.26687202 4.6478109 0.30228761
0.29345304 4.8460369 0.30228761
0.320034 5.0442624 0.30228761
0.34661496 5.2424884 0.30228761
0.37319601 5.4407144 0.30228761
0.39977697 5.6389399 0.30228761
0.42635798 5.8371658 0.30228761
-0.34449065 0.088618673 0.30228761
-0.34449065 0.088618673 0.50228763
-0.34449065 0.088618673 0.70228761
-0.34449065 0.088618673 0.9022876
-0.34449065 0.088618673 1.1022877
-0.34449065 0.088618673 1.3022876
-0.34449065 0.088618673 1.5022876
-0.34449065 0.088618673 1.7022876
-0.34449065 0.088618673 1.9022876
-0.34449065 0.088618673 2.1022875
-0.34449065 0.088618673 2.3022876
-0.34449065 0.088618673 2.5022876
-0.34449065 0.088618673 2.7022877
-0.34449065 0.088618673 2.9022875
-0.34449065 0.088618673 3.1022875
-0.34449065 0.088618673 3.3022876
-0.34449065 0.088618673 3.5022876
-0.34449065 0.088618673 3.7022877
-0.34449065 0.088618673 3.9022875
-0.34449065 0.088618673 4.1022878
-0.34449065 0.088618673 4.3022876
-0.34449065 0.088618673 4.5022874
-0.34449065 0.088618673 4.7022877
-0.34449065 0.088618673 4.9022875
-0.34449065 0.088618673 5.1022878
-0.34449065 0.088618673 5.3022876
-0.34449065 0.088618673 5.5022874
-0.34449065 0.088618673 5.7022877
-0.34449065 0.088618673 5.9022875
-0.34449065 0.088618673 6.1022878
-0.34449065 0.088618673 6.3022876
-0.34449065 0.088618673 6.5022874
-0.34449065 0.088618673 6.7022877
-0.34449065 0.088618673 6.9022875
-0.34449065 0.088618673 7.1022878
-0.34449065 0.088618673 7.3022876
-0.34449065 0.088618673 7.5022874
-0.34449065 0.088618673 7.7022877
-0.34449065 0.088618673 7.9022875
-0.34449065 0.088618673 8.1022882
-0.34449065 0.088618673 8.3022881
-0.34449065 0.088618673 8.5022879
-0.34449065 0.088618673 8.7022877
-0.34449065 0.088618673 8.9022884
-0.34449065 0.088618673 9.1022882
-0.34449065 0.088618673 0.30228761
-0.14626488 0.062037688 0.30228761
0.051960878 0.035456702 0.30228761
0.25018665 0.0088757137 0.30228761
0.44841239 -0.017705271 0.30228761
0.64663815 -0.044286255 0.30228761
0.84486395 -0.070867248 0.30228761
1.0430896 -0.097448222 0.30228761
1.2413155 -0.12402922 0.30228761
1.4395411 -0.15061019 0.30228761
1.637767 -0.17719118 0.30228761
1.8359927 -0.20377217 0.30228761
2.0342185 -0.23035318 0.30228761
2.232444 -0.25693414 0.30228761
2.43067 -0.28351513 0.30228761
-0.14626488 0.062037688 0.30228761
-0.11968389 0.26026344 0.30228761
-0.09310291 0.45848921 0.30228761
-0.06652192 0.65671498 0.30228761
-0.039940935 0.85494071 0.30228761
-0.013359951 1.0531665 0.30228761
0.013221041 1.2513922 0.30228761
0.039802019 1.449618 0.30228761
0.066383012 1.6478437 0.30228761
0.092963986 1.8460695 0.30228761
0.11954498 2.0442953 0.30228761
0.14612597 2.242521 0.30228761
0.17270696 2.4407468 0.30228761
0.19928792 2.6389725 0.30228761
0.22586891 2.8371983 0.30228761
0.2524499 3.035424 0.30228761
0.27903089 3.23365 0.30228761
0.30561191 3.4318757 0.30228761
0.33219287 3.6301012 0.30228761
0.35877386 3.8283269 0.30228761
0.38535485 4.0265527 0.30228761
0.41193581 4.2247787 0.30228761
0.43851683 4.4230046 0.30228761
0.46509778 4.6212301 0.30228761
0.4916788 4.8194561 0.30228761
0.51825976 5.0176816 0.30228761
0.54484075 5.2159071 0.30228761
0.57142174 5.4141331 0.30228761
0.59800273 5.612359 0.30228761
0.62458372 5.810585 0.30228761
-0.14626488 0.062037688 0.30228761
-0.14626488 0.062037688 0.50228763
-0.14626488 0.062037688 0.70228761
-0.14626488 0.062037688 0.9022876
-0.14626488 0.062037688 1.1022877
-0.14626488 0.062037688 1.3022876
-0.14626488 0.062037688 1.5022876
-0.14626488 0.062037688 1.7022876
-0.14626488 0.062037688 1.9022876
-0.14626488 0.062037688 2.1022875
-0.14626488 0.062037688 2.3022876
-0.14626488 0.062037688 2.5022876
-0.14626488 0.062037688 2.7022877
-0.14626488 0.062037688 2.9022875
-0.14626488 0.062037688 3.1022875
-0.14626488 0.062037688 3.3022876
-0.14626488 0.062037688 3.5022876
-0.14626488 0.062037688 3.7022877
-0.14626488 0.062037688 3.9022875
-0.14626488 0.062037688 4.1022878
-0.14626488 0.062037688 4.3022876
-0.14626488 0.062037688 4.5022874
-0.14626488 0.062037688 4.7022877
-0.14626488 0.062037688 4.9022875
-0.14626488 0.062037688 5.1022878
-0.14626488 0.062037688 5.3022876
-0.14626488 0.062037688 5.5022874
-0.14626488 0.062037688 5.7022877
-0.14626488 0.062037688 5.9022875
-0.14626488 0.062037688 6.1022878
-0.14626488 0.062037688 6.3022876
-0.14626488 0.062037688 6.5022874
-0.14626488 0.062037688 6.7022877
-0.14626488 0.062037688 6.9022875
-0.14626488 0.062037688 7.1022878
-0.14626488 0.062037688 7.3022876
-0.14626488 0.062037688 7.5022874
-0.14626488 0.062037688 7.7022877
-0.14626488 0.062037688 7.9022875
-0.14626488 0.062037688 8.1022882
-0.14626488 0.062037688 8.3022881
-0.14626488 0.062037688 8.5022879
-0.14626488 0.062037688 8.7022877
-0.14626488 0.062037688 8.9022884
-0.14626488 0.062037688 9.1022882
-0.34449065 0.088618673 0.30228761
-0.14626488 0.062037688 0.30228761
0.051960878 0.035456702 0.30228761
0.25018665 0.0088757137 0.30228761
0.44841239 -0.017705271 0.30228761
0.64663815 -0.044286255 0.30228761
0.84486395 -0.070867248 0.30228761
1.0430896 -0.097448222 0.30228761
1.2413155 -0.12402922 0.30228761
1.4395411 -0.15061019 0.30228761
1.637767 -0.17719118 0.30228761
1.8359927 -0.20377217 0.30228761
2.0342185 -0.23035318 0.30228761
2.232444 -0.25693414 0.30228761
2.43067 -0.28351513 0.30228761
0.051960878 0.035456702 0.30228761
0.078541867 0.23368247 0.30228761
0.10512285 0.43190822 0.30228761
0.13170384 0.63013399 0.30228761
0.15828483 0.82835972 0.30228761
0.1848658 1.0265855 0.30228761
0.21144681 1.2248113 0.30228761
0.23802778 1.4230369 0.30228761
0.26460877 1.6212628 0.30228761
0.29118976 1.8194885 0.30228761
0.31777075 2.0177143 0.30228761
0.34435174 2.21594 0.30228761
0.37093273 2.414166 0.30228761
0.39751369 2.6123915 0.30228761
0.42409468 2.8106172 0.30228761
0.45067567 3.0088432 0.30228761
0.47725666 3.2070689 0.30228761
0.50383765 3.4052947 0.30228761
0.53041863 3.6035202 0.30228761
0.55699962 3.8017461 0.30228761
0.58358061 3.9999719 0.30228761
0.61016154 4.1981974 0.30228761
0.63674259 4.3964233 0.30228761
0.66332352 4.5946488 0.30228761
0.68990457 4.7928753 0.30228761
0.71648556 4.9911008 0.30228761
0.74306649 5.1893263 0.30228761
0.76964754 5.3875523 0.30228761
0.79622847 5.5857778 0.30228761
0.82280952 5.7840037 0.30228761
0.051960878 0.035456702 0.30228761
0.051960878 0.035456702 0.50228763
0.051960878 0.035456702 0.70228761
0.051960878 0.035456702 0.9022876
0.051960878 0.035456702 1.1022877
0.051960878 0.035456702 1.3022876
0.051960878 0.035456702 1.5022876
0.051960878 0.035456702 1.7022876
0.051960878 0.035456702 1.9022876
0.051960878 0.035456702 2.1022875
0.051960878 0.035456702 2.3022876
0.051960878 0.035456702 2.5022876
0.051960878 0.035456702 2.7022877
0.051960878 0.035456702 2.9022875
0.051960878 0.035456702 3.1022875
0.051960878 0.035456702 3.3022876
0.051960878 0.035456702 3.5022876
0.051960878 0.035456702 3.7022877
0.051960878 0.035456702 3.9022875
0.051960878 0.035456702 4.1022878
0.051960878 0.035456702 4.3022876
0.051960878 0.035456702 4.5022874
0.051960878 0.035456702 4.7022877
0.051960878 0.035456702 4.9022875
0.051960878 0.035456702 5.1022878
0.051960878 0.035456702 5.3022876
0.051960878 0.035456702 5.5022874
0.051960878 0.035456702 5.7022877
0.051960878 0.035456702 5.9022875
0.051960878 0.035456702 6.1022878
0.051960878 0.035456702 6.3022876
0.051960878 0.035456702 6.5022874
0.051960878 0.035456702 6.7022877
0.051960878 0.035456702 6.9022875
0.051960878 0.035456702 7.1022878
0.051960878 0.035456702 7.3022876
0.051960878 0.035456702 7.5022874
0.051960878 0.035456702 7.7022877
0.051960878 0.035456702 7.9022875
0.051960878 0.035456702 8.1022882
0.051960878 0.035456702 8.3022881
0.051960878 0.035456702 8.5022879
0.051960878 0.035456702 8.7022877
0.051960878 0.035456702 8.9022884
0.051960878 0.035456702 9.1022882
-0.34449065 0.088618673 0.30228761
-0.14626488 0.062037688 0.30228761
0.051960878 0.035456702 0.30228761
0.25018665 0.0088757137 0.30228761
0.44841239 -0.017705271 0.30228761
0.64663815 -0.044286255 0.30228761
0.84486395 -0.070867248 0.30228761
1.0430896 -0.097448222 0.30228761
1.2413155 -0.12402922 0.30228761
1.4395411 -0.15061019 0.30228761
1.637767 -0.17719118 0.30228761
1.8359927 -0.20377217 0.30228761
2.0342185 -0.23035318 0.30228761
2.232444 -0.25693414 0.30228761
2.43067 -0.28351513 0.30228761
0.25018665 0.0088757137 0.30228761
0.27676764 0.20710148 0.30228761
0.30334863 0.40532723 0.30228761
0.32992962 0.603553 0.30228761
0.35651061 0.80177873 0.30228761
0.3830916 1.0000045 0.30228761
0.40967259 1.1982303 0.30228761
0.43625355 1.396456 0.30228761
0.46283454 1.5946819 0.30228761
0.48941553 1.7929075 0.30228761
0.51599652 1.9911333 0.30228761
0.54257751 2.1893592 0.30228761
0.56915849 2.3875849 0.30228761
0.59573948 2.5858104 0.30228761
0.62232047 2.7840364 0.30228761
0.64890146 2.9822621 0.30228761
0.67548245 3.1804879 0.30228761
0.70206344 3.3787136 0.30228761
0.72864437 3.5769393 0.30228761
0.75522536 3.7751651 0.30228761
0.78180635 3.9733908 0.30228761
0.80838734 4.1716166 0.30228761
0.83496839 4.3698425 0.30228761
0.86154932 4.568068 0.30228761
0.88813037 4.766294 0.30228761
0.9147113 4.9645195 0.30228761
0.94129229 5.162745 0.30228761
0.96787328 5.3609715 0.30228761
0.99445426 5.5591969 0.30228761
1.0210353 5.7574229 0.30228761
0.25018665 0.0088757137 0.30228761
0.25018665 0.0088757137 0.50228763
0.25018665 0.0088757137 0.70228761
0.25018665 0.0088757137 0.9022876
0.25018665 0.0088757137 1.1022877
0.25018665 0.0088757137 1.3022876
0.25018665 0.0088757137 1.5022876
0.25018665 0.0088757137 1.7022876
0.25018665 0.0088757137 1.9022876
0.25018665 0.0088757137 2.1022875
0.25018665 0.0088757137 2.3022876
0.25018665 0.0088757137 2.5022876
0.25018665 0.0088757137 2.7022877
0.25018665 0.0088757137 2.9022875
0.25018665 0.0088757137 3.1022875
0.25018665 0.0088757137 3.3022876
0.25018665 0.0088757137 3.5022876
0.25018665 0.0088757137 3.7022877
0.25018665 0.0088757137 3.9022875
0.25018665 0.0088757137 4.1022878
0.25018665 0.0088757137 4.3022876
0.25018665 0.0088757137 4.5022874
0.25018665 0.0088757137 4.7022877
0.25018665 0.0088757137 4.9022875
0.25018665 0.0088757137 5.1022878
0.25018665 0.0088757137 5.3022876
0.25018665 0.0088757137 5.5022874
0.25018665 0.0088757137 5.7022877
0.25018665 0.0088757137 5.9022875
0.25018665 0.0088757137 6.1022878
0.25018665 0.0088757137 6.3022876
0.25018665 0.0088757137 6.5022874
0.25018665 0.0088757137 6.7022877
0.25018665 0.0088757137 6.9022875
0.25018665 0.0088757137 7.1022878
0.25018665 0.0088757137 7.3022876
0.25018665 0.0088757137 7.5022874
0.25018665 0.0088757137 7.7022877
0.25018665 0.0088757137 7.9022875
0.25018665 0.0088757137 8.1022882
0.25018665 0.0088757137 8.3022881
0.25018665 0.0088757137 8.5022879
0.25018665 0.0088757137 8.7022877
0.25018665 0.0088757137 8.9022884
0.25018665 0.0088757137 9.1022882
-0.34449065 0.088618673 0.30228761
-0.14626488 0.062037688 0.30228761
0.051960878 0.035456702 0.30228761
0.25018665 0.0088757137 0.30228761
0.44841239 -0.017705271 0.30228761
0.64663815 -0.044286255 0.30228761
0.84486395 -0.070867248 0.30228761
1.0430896 -0.097448222 0.30228761
1.2413155 -0.12402922 0.30228761
1.4395411 -0.15061019 0.30228761
1.637767 -0.17719118 0.30228761
1.8359927 -0.20377217 0.30228761
2.0342185 -0.23035318 0.30228761
2.232444 -0.25693414 0.30228761
2.43067 -0.28351513 0.30228761
0.44841239 -0.017705271 0.30228761
0.47499338 0.18052049 0.30228761
0.5015744 0.37874624 0.30228761
0.52815539 0.57697201 0.30228761
0.55473638 0.77519774 0.30228761
0.58131731 0.97342354 0.30228761
0.60789829 1.1716493 0.30228761
0.63447928 1.369875 0.30228761
0.66106027 1.5681008 0.30228761
0.68764126 1.7663265 0.30228761
0.71422225 1.9645523 0.30228761
0.74080324 2.1627781 0.30228761
0.76738423 2.3610039 0.30228761
0.79396522 2.5592294 0.30228761
0.82054621 2.7574553 0.30228761
0.8471272 2.9556811 0.30228761
0.87370819 3.1539068 0.30228761
0.90028918 3.3521328 0.30228761
0.92687017 3.5503583 0.30228761
0.95345116 3.748584 0.30228761
0.98003215 3.94681 0.30228761
1.0066131 4.1450353 0.30228761
1.0331941 4.3432617 0.30228761
1.0597751 4.5414872 0.30228761
1.086356 4.7397132 0.30228761
1.1129371 4.9379387 0.30228761
1.139518 5.1361642 0.30228761
1.1660991 5.3343902 0.30228761
1.19268 5.5326157 0.30228761
1.2192611 5.7308421 0.30228761
0.44841239 -0.017705271 0.30228761
0.44841239 -0.017705271 0.50228763
0.44841239 -0.017705271 0.70228761
0.44841239 -0.017705271 0.9022876
0.44841239 -0.017705271 1.1022877
0.44841239 -0.017705271 1.3022876
0.44841239 -0.017705271 1.5022876
0.44841239 -0.017705271 1.7022876
0.44841239 -0.017705271 1.9022876
0.44841239 -0.017705271 2.1022875
0.44841239 -0.017705271 2.3022876
0.44841239 -0.017705271 2.5022876
0.44841239 -0.017705271 2.7022877
0.44841239 -0.017705271 2.9022875
0.44841239 -0.017705271 3.1022875
0.44841239 -0.017705271 3.3022876
0.44841239 -0.017705271 3.5022876
0.44841239 -0.017705271 3.7022877
0.44841239 -0.017705271 3.9022875
0.44841239 -0.017705271 4.1022878
0.44841239 -0.017705271 4.3022876
0.44841239 -0.017705271 4.5022874
0.44841239 -0.017705271 4.7022877
0.44841239 -0.017705271 4.9022875
0.44841239 -0.017705271 5.1022878
0.44841239 -0.017705271 5.3022876
0.44841239 -0.017705271 5.5022874
0.44841239 -0.017705271 5.7022877
0.44841239 -0.017705271 5.9022875
0.44841239 -0.017705271 6.1022878
0.44841239 -0.017705271 6.3022876
0.44841239 -0.017705271 6.5022874
0.44841239 -0.017705271 6.7022877
0.44841239 -0.017705271 6.9022875
0.44841239 -0.017705271 7.1022878
0.44841239 -0.017705271 7.3022876
0.44841239 -0.017705271 7.5022874
0.44841239 -0.017705271 7.7022877
0.44841239 -0.017705271 7.9022875
0.44841239 -0.017705271 8.1022882
0.44841239 -0.017705271 8.3022881
0.44841239 -0.017705271 8.5022879
0.44841239 -0.017705271 8.7022877
0.44841239 -0.017705271 8.9022884
0.44841239 -0.017705271 9.1022882
-0.34449065 0.088618673 0.30228761
-0.14626488 0.062037688 0.30228761
0.051960878 0.035456702 0.30228761
0.25018665 0.0088757137 0.30228761
0.44841239 -0.017705271 0.30228761
0.64663815 -0.044286255 0.30228761
0.84486395 -0.070867248 0.30228761
1.0430896 -0.097448222 0.30228761
1.2413155 -0.12402922 0.30228761
1.4395411 -0.15061019 0.30228761
1.637767 -0.17719118 0.30228761
1.8359927 -0.20377217 0.30228761
2.0342185 -0.23035318 0.30228761
2.232444 -0.25693414 0.30228761
2.43067 -0.28351513 0.30228761
0.64663815 -0.044286255 0.30228761
0.67321914 0.1539395 0.30228761
0.69980013 0.35216528 0.30228761
0.72638112 0.55039102 0.30228761
0.75296211 0.74861681 0.30228761
0.7795431 0.94684255 0.30228761
0.80612409 1.1450683 0.30228761
0.83270502 1.343294 0.30228761
0.85928601 1.5415199 0.30228761
0.885867 1.7397455 0.30228761
0.91244799 1.9379714 0.30228761
0.93902898 2.1361971 0.30228761
0.96560997 2.3344228 0.30228761
0.99219096 2.5326486 0.30228761
1.0187719 2.7308743 0.30228761
1.0453529 2.9291 0.30228761
1.071934 3.127326 0.30228761
1.0985149 3.3255517 0.30228761
1.1250958 3.5237772 0.30228761
1.1516769 3.722003 0.30228761
1.1782578 3.920229 0.30228761
1.2048389 4.1184545 0.30228761
1.2314198 4.3166804 0.30228761
1.2580009 4.5149059 0.30228761
1.2845818 4.7131319 0.30228761
1.3111628 4.9113579 0.30228761
1.3377438 5.1095834 0.30228761
1.3643248 5.3078094 0.30228761
1.3909057 5.5060349 0.30228761
1.4174868 5.7042608 0.30228761
0.64663815 -0.044286255 0.30228761
0.64663815 -0.044286255 0.50228763
0.64663815 -0.044286255 0.70228761
0.64663815 -0.044286255 0.9022876
0.64663815 -0.044286255 1.1022877
0.64663815 -0.044286255 1.3022876
0.64663815 -0.044286255 1.5022876
0.64663815 -0.044286255 1.7022876
0.64663815 -0.044286255 1.9022876
0.64663815 -0.044286255 2.1022875
0.64663815 -0.044286255 2.3022876
0.64663815 -0.044286255 2.5022876
0.64663815 -0.044286255 2.7022877
0.64663815 -0.044286255 2.9022875
0.64663815 -0.044286255 3.1022875
0.64663815 -0.044286255 3.3022876
0.64663815 -0.044286255 3.5022876
0.64663815 -0.044286255 3.7022877
0.64663815 -0.044286255 3.9022875
0.64663815 -0.044286255 4.1022878
0.64663815 -0.044286255 4.3022876
0.64663815 -0.044286255 4.5022874
0.64663815 -0.044286255 4.7022877
0.64663815 -0.044286255 4.9022875
0.64663815 -0.044286255 5.1022878
0.64663815 -0.044286255 5.3022876
0.64663815 -0.044286255 5.5022874
0.64663815 -0.044286255 5.7022877
0.64663815 -0.044286255 5.9022875
0.64663815 -0.044286255 6.1022878
0.64663815 -0.044286255 6.3022876
0.64663815 -0.044286255 6.5022874
0.64663815 -0.044286255 6.7022877
0.64663815 -0.044286255 6.9022875
0.64663815 -0.044286255 7.1022878
0.64663815 -0.044286255 7.3022876
0.64663815 -0.044286255 7.5022874
0.64663815 -0.044286255 7.7022877
0.64663815 -0.044286255 7.9022875
0.64663815 -0.044286255 8.1022882
0.64663815 -0.044286255 8.3022881
0.64663815 -0.044286255 8.5022879
0.64663815 -0.044286255 8.7022877
0.64663815 -0.044286255 8.9022884
0.64663815 -0.044286255 9.1022882
-0.34449065 0.088618673 0.30228761
-0.14626488 0.062037688 0.30228761
0.051960878 0.035456702 0.30228761
0.25018665 0.0088757137 0.30228761
0.44841239 -0.017705271 0.30228761
0.64663815 -0.044286255 0.30228761
0.84486395 -0.070867248 0.30228761
1.0430896 -0.097448222 0.30228761
1.2413155 -0.12402922 0.30228761
1.4395411 -0.15061019 0.30228761
1.637767 -0.17719118 0.30228761
1.8359927 -0.20377217 0.30228761
2.0342185 -0.23035318 0.30228761
2.232444 -0.25693414 0.30228761
2.43067 -0.28351513 0.30228761
0.84486395 -0.070867248 0.30228761
0.87144494 0.12735851 0.30228761
0.89802593 0.32558426 0.30228761
0.92460692 0.52381003 0.30228761
0.95118791 0.72203583 0.30228761
0.9777689 0.92026156 0.30228761
1.0043498 1.1184874 0.30228761
1.0309309 1.3167131 0.30228761
1.0575118 1.5149388 0.30228761
1.0840929 1.7131646 0.30228761
1.1106738 1.9113903 0.30228761
1.1372548 2.109616 0.30228761
1.1638358 2.307842 0.30228761
1.1904168 2.5060675 0.30228761
1.2169977 2.7042933 0.30228761
1.2435788 2.9025192 0.30228761
1.2701597 3.100745 0.30228761
1.2967408 3.2989707 0.30228761
1.3233217 3.4971962 0.30228761
1.3499026 3.6954222 0.30228761
1.3764837 3.8936479 0.30228761
1.4030646 4.0918736 0.30228761
1.4296457 4.2900996 0.30228761
1.4562266 4.4883251 0.30228761
1.4828076 4.6865511 0.30228761
1.5093886 4.8847766 0.30228761
1.5359696 5.0830021 0.30228761
1.5625505 5.2812285 0.30228761
1.5891316 5.479454 0.30228761
1.6157125 5.67768 0.30228761
0.84486395 -0.070867248 0.30228761
0.84486395 -0.070867248 0.50228763
0.84486395 -0.070867248 0.70228761
0.84486395 -0.070867248 0.9022876
0.84486395 -0.070867248 1.1022877
0.84486395 -0.070867248 1.3022876
0.84486395 -0.070867248 1.5022876
0.84486395 -0.070867248 1.7022876
0.84486395 -0.070867248 1.9022876
0.84486395 -0.070867248 2.1022875
0.84486395 -0.070867248 2.3022876
0.84486395 -0.070867248 2.5022876
0.84486395 -0.070867248 2.7022877
0.84486395 -0.070867248 2.9022875
0.84486395 -0.070867248 3.1022875
0.84486395 -0.070867248 3.3022876
0.84486395 -0.070867248 3.5022876
0.84486395 -0.070867248 3.7022877
0.84486395 -0.070867248 3.9022875
0.84486395 -0.070867248 4.1022878
0.84486395 -0.070867248 4.3022876
0.84486395 -0.070867248 4.5022874
0.84486395 -0.070867248 4.7022877
0.84486395 -0.070867248 4.9022875
0.84486395 -0.070867248 5.1022878
0.84486395 -0.070867248 5.3022876
0.84486395 -0.070867248 5.5022874
0.84486395 -0.070867248 5.7022877
0.84486395 -0.070867248 5.9022875
0.84486395 -0.070867248 6.1022878
0.84486395 -0.070867248 6.3022876
0.84486395 -0.070867248 6.5022874
0.84486395 -0.070867248 6.7022877
0.84486395 -0.070867248 6.9022875
0.84486395 -0.070867248 7.1022878
0.84486395 -0.070867248 7.3022876
0.84486395 -0.070867248 7.5022874
0.84486395 -0.070867248 7.7022877
0.84486395 -0.070867248 7.9022875
0.84486395 -0.070867248 8.1022882
0.84486395 -0.070867248 8.3022881
0.84486395 -0.070867248 8.5022879
0.84486395 -0.070867248 8.7022877
0.84486395 -0.070867248 8.9022884
0.84486395 -0.070867248 9.1022882
-0.34449065 0.088618673 0.30228761
-0.14626488 0.062037688 0.30228761
0.051960878 0.035456702 0.30228761
0.25018665 0.0088757137 0.30228761
0.44841239 -0.017705271 0.30228761
0.64663815 -0.044286255 0.30228761
0.84486395 -0.070867248 0.30228761
1.0430896 -0.097448222 0.30228761
1.2413155 -0.12402922 0.30228761
1.4395411 -0.15061019 0.30228761
1.637767 -0.17719118 0.30228761
1.8359927 -0.20377217 0.30228761
2.0342185 -0.23035318 0.30228761
2.232444 -0.25693414 0.30228761
2.43067 -0.28351513 0.30228761
1.0430896 -0.097448222 0.30228761
1.0696707 0.10077754 0.30228761
1.0962516 0.2990033 0.30228761
1.1228327 0.49722907 0.30228761
1.1494136 0.69545484 0.30228761
1.1759945 0.89368057 0.30228761
1.2025756 1.0919064 0.30228761
1.2291565 1.290132 0.30228761
1.2557375 1.4883579 0.30228761
1.2823185 1.6865835 0.30228761
1.3088995 1.8848094 0.30228761
1.3354805 2.0830352 0.30228761
1.3620615 2.281261 0.30228761
1.3886424 2.4794865 0.30228761
1.4152235 2.6777124 0.30228761
1.4418044 2.8759382 0.30228761
1.4683855 3.0741639 0.30228761
1.4949664 3.2723897 0.30228761
1.5215473 3.4706154 0.30228761
1.5481284 3.6688411 0.30228761
1.5747094 3.8670669 0.30228761
1.6012903 4.0652924 0.30228761
1.6278714 4.2635183 0.30228761
1.6544523 4.4617443 0.30228761
1.6810334 4.6599703 0.30228761
1.7076143 4.8581958 0.30228761
1.7341952 5.0564213 0.30228761
1.7607763 5.2546473 0.30228761
1.7873572 5.4528728 0.30228761
1.8139383 5.6510987 0.30228761
1.0430896 -0.097448222 0.30228761
1.0430896 -0.097448222 0.50228763
1.0430896 -0.097448222 0.70228761
1.0430896 -0.097448222 0.9022876
1.0430896 -0.097448222 1.1022877
1.0430896 -0.097448222 1.3022876
1.0430896 -0.097448222 1.5022876
1.0430896 -0.097448222 1.7022876
1.0430896 -0.097448222 1.9022876
1.0430896 -0.097448222 2.1022875
1.0430896 -0.097448222 2.3022876
1.0430896 -0.097448222 2.5022876
1.0430896 -0.097448222 2.7022877
1.0430896 -0.097448222 2.9022875
1.0430896 -0.097448222 3.1022875
1.0430896 -0.097448222 3.3022876
1.0430896 -0.097448222 3.5022876
1.0430896 -0.097448222 3.7022877
1.0430896 -0.097448222 3.9022875
1.0430896 -0.097448222 4.1022878
1.0430896 -0.097448222 4.3022876
1.0430896 -0.097448222 4.5022874
1.0430896 -0.097448222 4.7022877
1.0430896 -0.097448222 4.9022875
1.0430896 -0.097448222 5.1022878
1.0430896 -0.097448222 5.3022876
1.0430896 -0.097448222 5.5022874
1.0430896 -0.097448222 5.7022877
1.0430896 -0.097448222 5.9022875
1.0430896 -0.097448222 6.1022878
1.0430896 -0.097448222 6.3022876
1.0430896 -0.097448222 6.5022874
1.0430896 -0.097448222 6.7022877
1.0430896 -0.097448222 6.9022875
1.0430896 -0.097448222 7.1022878
1.0430896 -0.097448222 7.3022876
1.0430896 -0.097448222 7.5022874
1.0430896 -0.097448222 7.7022877
1.0430896 -0.097448222 7.9022875
1.0430896 -0.097448222 8.1022882
1.0430896 -0.097448222 8.3022881
1.0430896 -0.097448222 8.5022879
1.0430896 -0.097448222 8.7022877
1.0430896 -0.097448222 8.9022884
1.0430896 -0.097448222 9.1022882
-0.34449065 0.088618673 0.30228761
-0.14626488 0.062037688 0.30228761
0.051960878 0.035456702 0.30228761
0.25018665 0.0088757137 0.30228761
0.44841239 -0.017705271 0.30228761
0.64663815 -0.044286255 0.30228761
0.84486395 -0.070867248 0.30228761
1.0430896 -0.097448222 0.30228761
1.2413155 -0.12402922 0.30228761
1.4395411 -0.15061019 0.30228761
1.637767 -0.17719118 0.30228761
1.8359927 -0.20377217 0.30228761
2.0342185 -0.23035318 0.30228761
2.232444 -0.25693414 0.30228761
2.43067 -0.28351513 0.30228761
1.2413155 -0.12402922 0.30228761
1.2678964 0.074196547 0.30228761
1.2944775 0.27242231 0.30228761
1.3210584 0.47064808 0.30228761
1.3476394 0.66887385 0.30228761
1.3742204 0.86709958 0.30228761
1.4008014 1.0653254 0.30228761
1.4273823 1.2635511 0.30228761
1.4539633 1.4617769 0.30228761
1.4805443 1.6600026 0.30228761
1.5071253 1.8582283 0.30228761
1.5337063 2.0564542 0.30228761
1.5602872 2.2546799 0.30228761
1.5868683 2.4529057 0.30228761
1.6134492 2.6511314 0.30228761
1.6400303 2.8493571 0.30228761
1.6666112 3.0475829 0.30228761
1.6931922 3.2458088 0.30228761
1.7197732 3.4440343 0.30228761
1.7463542 3.6422601 0.30228761
1.7729352 3.840486 0.30228761
1.7995161 4.0387115 0.30228761
1.8260971 4.2369375 0.30228761
1.8526781 4.435163 0.30228761
1.8792591 4.633389 0.30228761
1.90584 4.831615 0.30228761
1.9324211 5.0298405 0.30228761
1.9590021 5.2280664 0.30228761
1.9855831 5.4262919 0.30228761
2.0121641 5.6245179 0.30228761
1.2413155 -0.12402922 0.30228761
1.2413155 -0.12402922 0.50228763
1.2413155 -0.12402922 0.70228761
1.2413155 -0.12402922 0.9022876
1.2413155 -0.12402922 1.1022877
1.2413155 -0.12402922 1.3022876
1.2413155 -0.12402922 1.5022876
1.2413155 -0.12402922 1.7022876
1.2413155 -0.12402922 1.9022876
1.2413155 -0.12402922 2.1022875
1.2413155 -0.12402922 2.3022876
1.2413155 -0.12402922 2.5022876
1.2413155 -0.12402922 2.7022877
1.2413155 -0.12402922 2.9022875
1.2413155 -0.12402922 3.1022875
1.2413155 -0.12402922 3.3022876
1.2413155 -0.12402922 3.5022876
1.2413155 -0.12402922 3.7022877
1.2413155 -0.12402922 3.9022875
1.2413155 -0.12402922 4.1022878
1.2413155 -0.12402922 4.3022876
1.2413155 -0.12402922 4.5022874
1.2413155 -0.12402922 4.7022877
1.2413155 -0.12402922 4.9022875
1.2413155 -0.12402922 5.1022878
1.2413155 -0.12402922 5.3022876
1.2413155 -0.12402922 5.5022874
1.2413155 -0.12402922 5.7022877
1.2413155 -0.12402922 5.9022875
1.2413155 -0.12402922 6.1022878
1.2413155 -0.12402922 6.3022876
1.2413155 -0.12402922 6.5022874
1.2413155 -0.12402922 6.7022877
1.2413155 -0.12402922 6.9022875
1.2413155 -0.12402922 7.1022878
1.2413155 -0.12402922 7.3022876
1.2413155 -0.12402922 7.5022874
1.2413155 -0.12402922 7.7022877
1.2413155 -0.12402922 7.9022875
1.2413155 -0.12402922 8.1022882
1.2413155 -0.12402922 8.3022881
1.2413155 -0.12402922 8.5022879
1.2413155 -0.12402922 8.7022877
1.2413155 -0.12402922 8.9022884
1.2413155 -0.12402922 9.1022882
-0.34449065 0.088618673 0.30228761
-0.14626488 0.062037688 0.30228761
0.051960878 0.035456702 0.30228761
0.25018665 0.0088757137 0.30228761
0.44841239 -0.017705271 0.30228761
0.64663815 -0.044286255 0.30228761
0.84486395 -0.070867248 0.30228761
1.0430896 -0.097448222 0.30228761
1.2413155 -0.12402922 0.30228761
1.4395411 -0.15061019 0.30228761
1.637767 -0.17719118 0.30228761
1.8359927 -0.20377217 0.30228761
2.0342185 -0.23035318 0.30228761
2.232444 -0.25693414 0.30228761
2.43067 -0.28351513 0.30228761
1.4395411 -0.15061019 0.30228761
1.4661222 0.047615569 0.30228761
1.4927031 0.24584132 0.30228761
1.5192841 0.44406709 0.30228761
1.5458651 0.64229286 0.30228761
1.5724461 0.84051859 0.30228761
1.599027 1.0387444 0.30228761
1.6256081 1.2369701 0.30228761
1.652189 1.4351959 0.30228761
1.6787699 1.6334215 0.30228761
1.705351 1.8316474 0.30228761
1.731932 2.0298731 0.30228761
1.758513 2.2280991 0.30228761
1.7850939 2.4263246 0.30228761
1.811675 2.6245503 0.30228761
1.8382559 2.8227761 0.30228761
1.8648369 3.0210021 0.30228761
1.8914179 3.2192278 0.30228761
1.9179989 3.4174533 0.30228761
1.9445798 3.6156793 0.30228761
1.9711609 3.813905 0.30228761
1.9977418 4.0121307 0.30228761
2.0243227 4.2103567 0.30228761
2.0509038 4.4085822 0.30228761
2.0774848 4.6068082 0.30228761
2.1040659 4.8050337 0.30228761
2.1306467 5.0032592 0.30228761
2.1572278 5.2014852 0.30228761
2.1838088 5.3997111 0.30228761
2.2103899 5.5979371 0.30228761
1.4395411 -0.15061019 0.30228761
1.4395411 -0.15061019 0.50228763
1.4395411 -0.15061019 0.70228761
1.4395411 -0.15061019 0.9022876
1.4395411 -0.15061019 1.1022877
1.4395411 -0.15061019 1.3022876
1.4395411 -0.15061019 1.5022876
1.4395411 -0.15061019 1.7022876
1.4395411 -0.15061019 1.9022876
1.4395411 -0.15061019 2.1022875
1.4395411 -0.15061019 2.3022876
1.4395411 -0.15061019 2.5022876
1.4395411 -0.15061019 2.7022877
1.4395411 -0.15061019 2.9022875
1.4395411 -0.15061019 3.1022875
1.4395411 -0.15061019 3.3022876
1.4395411 -0.15061019 3.5022876
1.4395411 -0.15061019 3.7022877
1.4395411 -0.15061019 3.9022875
1.4395411 -0.15061019 4.1022878
1.4395411 -0.15061019 4.3022876
1.4395411 -0.15061019 4.5022874
1.4395411 -0.15061019 4.7022877
1.4395411 -0.15061019 4.9022875
1.4395411 -0.15061019 5.1022878
1.4395411 -0.15061019 5.3022876
1.4395411 -0.15061019 5.5022874
1.4395411 -0.15061019 5.7022877
1.4395411 -0.15061019 5.9022875
1.4395411 -0.15061019 6.1022878
1.4395411 -0.15061019 6.3022876
1.4395411 -0.15061019 6.5022874
1.4395411 -0.15061019 6.7022877
1.4395411 -0.15061019 6.9022875
1.4395411 -0.15061019 7.1022878
1.4395411 -0.15061019 7.3022876
1.4395411 -0.15061019 7.5022874
1.4395411 -0.15061019 7.7022877
1.4395411 -0.15061019 7.9022875
1.4395411 -0.15061019 8.1022882
1.4395411 -0.15061019 8.3022881
1.4395411 -0.15061019 8.5022879
1.4395411 -0.15061019 8.7022877
1.4395411 -0.15061019 8.9022884
1.4395411 -0.15061019 9.1022882
-0.34449065 0.088618673 0.30228761
-0.14626488 0.062037688 0.30228761
0.051960878 0.035456702 0.30228761
0.25018665 0.0088757137 0.30228761
0.44841239 -0.017705271 0.30228761
0.64663815 -0.044286255 0.30228761
0.84486395 -0.070867248 0.30228761
1.0430896 -0.097448222 0.30228761
1.2413155 -0.12402922 0.30228761
1.4395411 -0.15061019 0.30228761
1.637767 -0.17719118 0.30228761
1.8359927 -0.20377217 0.30228761
2.0342185 -0.23035318 0.30228761
2.232444 -0.25693414 0.30228761
2.43067 -0.28351513 0.30228761
1.637767 -0.17719118 0.30228761
1.6643479 0.021034576 0.30228761
1.6909289 0.21926033 0.30228761
1.7175099 0.4174861 0.30228761
1.7440909 0.61571187 0.30228761
1.7706718 0.8139376 0.30228761
1.7972529 1.0121634 0.30228761
1.8238338 1.2103891 0.30228761
1.8504149 1.4086149 0.30228761
1.8769958 1.6068406 0.30228761
1.9035769 1.8050663 0.30228761
1.9301578 2.0032921 0.30228761
1.9567388 2.2015181 0.30228761
1.9833198 2.3997436 0.30228761
2.0099008 2.5979693 0.30228761
2.0364816 2.7961953 0.30228761
2.0630627 2.994421 0.30228761
2.0896437 3.1926467 0.30228761
2.1162248 3.3908725 0.30228761
2.1428056 3.5890982 0.30228761
2.1693866 3.787324 0.30228761
2.1959677 3.9855494 0.30228761
2.2225487 4.1837754 0.30228761
2.2491295 4.3820009 0.30228761
2.2757106 4.5802274 0.30228761
2.3022916 4.7784529 0.30228761
2.3288724 4.9766784 0.30228761
2.3554535 5.1749043 0.30228761
2.3820345 5.3731298 0.30228761
2.4086156 5.5713558 0.30228761
1.637767 -0.17719118 0.30228761
1.637767 -0.17719118 0.50228763
1.637767 -0.17719118 0.70228761
1.637767 -0.17719118 0.9022876
1.637767 -0.17719118 1.1022877
1.637767 -0.17719118 1.3022876
1.637767 -0.17719118 1.5022876
1.637767 -0.17719118 1.7022876
1.637767 -0.17719118 1.9022876
1.637767 -0.17719118 2.1022875
1.637767 -0.17719118 2.3022876
1.637767 -0.17719118 2.5022876
1.637767 -0.17719118 2.7022877
1.637767 -0.17719118 2.9022875
1.637767 -0.17719118 3.1022875
1.637767 -0.17719118 3.3022876
1.637767 -0.17719118 3.5022876
1.637767 -0.17719118 3.7022877
1.637767 -0.17719118 3.9022875
1.637767 -0.17719118 4.1022878
1.637767 -0.17719118 4.3022876
1.637767 -0.17719118 4.5022874
1.637767 -0.17719118 4.7022877
1.637767 -0.17719118 4.9022875
1.637767 -0.17719118 5.1022878
1.637767 -0.17719118 5.3022876
1.637767 -0.17719118 5.5022874
1.637767 -0.17719118 5.7022877
1.637767 -0.17719118 5.9022875
1.637767 -0.17719118 6.1022878
1.637767 -0.17719118 6.3022876
1.637767 -0.17719118 6.5022874
1.637767 -0.17719118 6.7022877
1.637767 -0.17719118 6.9022875
1.637767 -0.17719118 7.1022878
1.637767 -0.17719118 7.3022876
1.637767 -0.17719118 7.5022874
1.637767 -0.17719118 7.7022877
1.637767 -0.17719118 7.9022875
1.637767 -0.17719118 8.1022882
1.637767 -0.17719118 8.3022881
1.637767 -0.17719118 8.5022879
1.637767 -0.17719118 8.7022877
1.637767 -0.17719118 8.9022884
1.637767 -0.17719118 9.1022882
-0.34449065 0.088618673 0.30228761
-0.14626488 0.062037688 0.30228761
0.051960878 0.035456702 0.30228761
0.25018665 0.0088757137 0.30228761
0.44841239 -0.017705271 0.30228761
0.64663815 -0.044286255 0.30228761
0.84486395 -0.070867248 0.30228761
1.0430896 -0.097448222 0.30228761
1.2413155 -0.12402922 0.30228761
1.4395411 -0.15061019 0.30228761
1.637767 -0.17719118 0.30228761
1.8359927 -0.20377217 0.30228761
2.0342185 -0.23035318 0.30228761
2.232444 -0.25693414 0.30228761
2.43067 -0.28351513 0.30228761
1.8359927 -0.20377217 0.30228761
1.8625737 -0.0055464162 0.30228761
1.8891547 0.19267935 0.30228761
1.9157357 0.39090511 0.30228761
1.9423167 0.58913088 0.30228761
1.9688977 0.78735662 0.30228761
1.9954786 0.98558241 0.30228761
2.0220597 1.1838081 0.30228761
2.0486407 1.3820339 0.30228761
2.0752215 1.5802596 0.30228761
2.1018026 1.7784854 0.30228761
2.1283836 1.9767112 0.30228761
2.1549647 2.174937 0.30228761
2.1815455 2.3731625 0.30228761
2.2081265 2.5713885 0.30228761
2.2347076 2.7696142 0.30228761
2.2612886 2.96784 0.30228761
2.2878695 3.1660657 0.30228761
2.3144505 3.3642914 0.30228761
2.3410316 3.5625172 0.30228761
2.3676124 3.7607429 0.30228761
2.3941934 3.9589686 0.30228761
2.4207745 4.1571946 0.30228761
2.4473555 4.3554201 0.30228761
2.4739363 4.5536461 0.30228761
2.5005174 4.7518716 0.30228761
2.5270984 4.9500976 0.30228761
2.5536795 5.1483235 0.30228761
2.5802603 5.346549 0.30228761
2.6068413 5.544775 0.30228761
1.8359927 -0.20377217 0.30228761
1.8359927 -0.20377217 0.50228763
1.8359927 -0.20377217 0.70228761
1.8359927 -0.20377217 0.9022876
1.8359927 -0.20377217 1.1022877
1.8359927 -0.20377217 1.3022876
1.8359927 -0.20377217 1.5022876
1.8359927 -0.20377217 1.7022876
1.8359927 -0.20377217 1.9022876
1.8359927 -0.20377217 2.1022875
1.8359927 -0.20377217 2.3022876
1.8359927 -0.20377217 2.5022876
1.8359927 -0.20377217 2.7022877
1.8359927 -0.20377217 2.9022875
1.8359927 -0.20377217 3.1022875
1.8359927 -0.20377217 3.3022876
1.8359927 -0.20377217 3.5022876
1.8359927 -0.20377217 3.7022877
1.8359927 -0.20377217 3.9022875
1.8359927 -0.20377217 4.1022878
1.8359927 -0.20377217 4.3022876
1.8359927 -0.20377217 4.5022874
1.8359927 -0.20377217 4.7022877
1.8359927 -0.20377217 4.9022875
1.8359927 -0.20377217 5.1022878
1.8359927 -0.20377217 5.3022876
1.8359927 -0.20377217 5.5022874
1.8359927 -0.20377217 5.7022877
1.8359927 -0.20377217 5.9022875
1.8359927 -0.20377217 6.1022878
1.8359927 -0.20377217 6.3022876
1.8359927 -0.20377217 6.5022874
1.8359927 -0.20377217 6.7022877
1.8359927 -0.20377217 6.9022875
1.8359927 -0.20377217 7.1022878
1.8359927 -0.20377217 7.3022876
1.8359927 -0.20377217 7.5022874
1.8359927 -0.20377217 7.7022877
1.8359927 -0.20377217 7.9022875
1.8359927 -0.20377217 8.1022882
1.8359927 -0.20377217 8.3022881
1.8359927 -0.20377217 8.5022879
1.8359927 -0.20377217 8.7022877
1.8359927 -0.20377217 8.9022884
1.8359927 -0.20377217 9.1022882
-0.34449065 0.088618673 0.30228761
-0.14626488 0.062037688 0.30228761
0.051960878 0.035456702 0.30228761
0.25018665 0.0088757137 0.30228761
0.44841239 -0.017705271 0.30228761
0.64663815 -0.044286255 0.30228761
0.84486395 -0.070867248 0.30228761
1.0430896 -0.097448222 0.30228761
1.2413155 -0.12402922 0.30228761
1.4395411 -0.15061019 0.30228761
1.637767 -0.17719118 0.30228761
1.8359927 -0.20377217 0.30228761
2.0342185 -0.23035318 0.30228761
2.232444 -0.25693414 0.30228761
2.43067 -0.28351513 0.30228761
2.0342185 -0.23035318 0.30228761
2.0607996 -0.03212741 0.30228761
2.0873804 0.16609836 0.30228761
2.1139615 0.36432412 0.30228761
2.1405425 0.56254989 0.30228761
2.1671236 0.76077563 0.30228761
2.1937044 0.95900142 0.30228761
2.2202854 1.1572272 0.30228761
2.2468665 1.3554529 0.30228761
2.2734475 1.5536786 0.30228761
2.3000283 1.7519044 0.30228761
2.3266094 1.9501302 0.30228761
2.3531904 2.148356 0.30228761
2.3797715 2.3465817 0.30228761
2.4063523 2.5448074 0.30228761
2.4329333 2.7430332 0.30228761
2.4595144 2.9412589 0.30228761
2.4860954 3.1394849 0.30228761
2.5126762 3.3377104 0.30228761
2.5392573 3.5359361 0.30228761
2.5658383 3.7341621 0.30228761
2.5924191 3.9323876 0.30228761
2.6190002 4.1306138 0.30228761
2.6455812 4.3288393 0.30228761
2.6721623 4.5270653 0.30228761
2.6987431 4.7252908 0.30228761
2.7253242 4.9235163 0.30228761
2.7519052 5.1217422 0.30228761
2.7784863 5.3199677 0.30228761
2.8050671 5.5181942 0.30228761
2.0342185 -0.23035318 0.30228761
2.0342185 -0.23035318 0.50228763
2.0342185 -0.23035318 0.70228761
2.0342185 -0.23035318 0.9022876
2.0342185 -0.23035318 1.1022877
2.0342185 -0.23035318 1.3022876
2.0342185 -0.23035318 1.5022876
2.0342185 -0.23035318 1.7022876
2.0342185 -0.23035318 1.9022876
2.0342185 -0.23035318 2.1022875
2.0342185 -0.23035318 2.3022876
2.0342185 -0.23035318 2.5022876
2.0342185 -0.23035318 2.7022877
2.0342185 -0.23035318 2.9022875
2.0342185 -0.23035318 3.1022875
2.0342185 -0.23035318 3.3022876
2.0342185 -0.23035318 3.5022876
2.0342185 -0.23035318 3.7022877
2.0342185 -0.23035318 3.9022875
2.0342185 -0.23035318 4.1022878
2.0342185 -0.23035318 4.3022876
2.0342185 -0.23035318 4.5022874
2.0342185 -0.23035318 4.7022877
2.0342185 -0.23035318 4.9022875
2.0342185 -0.23035318 5.1022878
2.0342185 -0.23035318 5.3022876
2.0342185 -0.23035318 5.5022874
2.0342185 -0.23035318 5.7022877
2.0342185 -0.23035318 5.9022875
2.0342185 -0.23035318 6.1022878
2.0342185 -0.23035318 6.3022876
2.0342185 -0.23035318 6.5022874
2.0342185 -0.23035318 6.7022877
2.0342185 -0.23035318 6.9022875
2.0342185 -0.23035318 7.1022878
2.0342185 -0.23035318 7.3022876
2.0342185 -0.23035318 7.5022874
2.0342185 -0.23035318 7.7022877
2.0342185 -0.23035318 7.9022875
2.0342185 -0.23035318 8.1022882
2.0342185 -0.23035318 8.3022881
2.0342185 -0.23035318 8.5022879
2.0342185 -0.23035318 8.7022877
2.0342185 -0.23035318 8.9022884
2.0342185 -0.23035318 9.1022882
-0.34449065 0.088618673 0.30228761
-0.14626488 0.062037688 0.30228761
0.051960878 0.035456702 0.30228761
0.25018665 0.0088757137 0.30228761
0.44841239 -0.017705271 0.30228761
0.64663815 -0.044286255 0.30228761
0.84486395 -0.070867248 0.30228761
1.0430896 -0.097448222 0.30228761
1.2413155 -0.12402922 0.30228761
1.4395411 -0.15061019 0.30228761
1.637767 -0.17719118 0.30228761
1.8359927 -0.20377217 0.30228761
2.0342185 -0.23035318 0.30228761
2.232444 -0.25693414 0.30228761
2.43067 -0.28351513 0.30228761
2.232444 -0.25693414 0.30228761
2.2590251 -0.05870837 0.30228761
2.2856061 0.1395174 0.30228761
2.3121872 0.33774316 0.30228761
2.338768 0.5359689 0.30228761
2.3653491 0.73419464 0.30228761
2.3919301 0.93242049 0.30228761
2.4185109 1.1306461 0.30228761
2.445092 1.328872 0.30228761
2.471673 1.5270977 0.30228761
2.4982541 1.7253234 0.30228761
2.5248349 1.9235493 0.30228761
2.5514159 2.1217752 0.30228761
2.577997 2.3200006 0.30228761
2.604578 2.5182264 0.30228761
2.6311588 2.7164524 0.30228761
2.6577399 2.9146781 0.30228761
2.6843209 3.1129038 0.30228761
2.7109017 3.3111293 0.30228761
2.7374828 3.5093553 0.30228761
2.7640638 3.707581 0.30228761
2.7906449 3.9058065 0.30228761
2.8172259 4.1040325 0.30228761
2.8438067 4.302258 0.30228761
2.8703878 4.5004845 0.30228761
2.8969688 4.69871 0.30228761
2.9235497 4.8969355 0.30228761
2.9501307 5.0951614 0.30228761
2.9767118 5.2933869 0.30228761
3.0032928 5.4916129 0.30228761
2.232444 -0.25693414 0.30228761
2.232444 -0.25693414 0.50228763
2.232444 -0.25693414 0.70228761
2.232444 -0.25693414 0.9022876
2.232444 -0.25693414 1.1022877
2.232444 -0.25693414 1.3022876
2.232444 -0.25693414 1.5022876
2.232444 -0.25693414 1.7022876
2.232444 -0.25693414 1.9022876
2.232444 -0.25693414 2.1022875
2.232444 -0.25693414 2.3022876
2.232444 -0.25693414 2.5022876
2.232444 -0.25693414 2.7022877
2.232444 -0.25693414 2.9022875
2.232444 -0.25693414 3.1022875
2.232444 -0.25693414 3.3022876
2.232444 -0.25693414 3.5022876
2.232444 -0.25693414 3.7022877
2.232444 -0.25693414 3.9022875
2.232444 -0.25693414 4.1022878
2.232444 -0.25693414 4.3022876
2.232444 -0.25693414 4.5022874
2.232444 -0.25693414 4.7022877
2.232444 -0.25693414 4.9022875
2.232444 -0.25693414 5.1022878
2.232444 -0.25693414 5.3022876
2.232444 -0.25693414 5.5022874
2.232444 -0.25693414 5.7022877
2.232444 -0.25693414 5.9022875
2.232444 -0.25693414 6.1022878
2.232444 -0.25693414 6.3022876
2.232444 -0.25693414 6.5022874
2.232444 -0.25693414 6.7022877
2.232444 -0.25693414 6.9022875
2.232444 -0.25693414 7.1022878
2.232444 -0.25693414 7.3022876
2.232444 -0.25693414 7.5022874
2.232444 -0.25693414 7.7022877
2.232444 -0.25693414 7.9022875
2.232444 -0.25693414 8.1022882
2.232444 -0.25693414 8.3022881
2.232444 -0.25693414 8.5022879
2.232444 -0.25693414 8.7022877
2.232444 -0.25693414 8.9022884
2.232444 -0.25693414 9.1022882
-0.34449065 0.088618673 0.30228761
-0.14626488 0.062037688 0.30228761
0.051960878 0.035456702 0.30228761
0.25018665 0.0088757137 0.30228761
0.44841239 -0.017705271 0.30228761
0.64663815 -0.044286255 0.30228761
0.84486395 -0.070867248 0.30228761
1.0430896 -0.097448222 0.30228761
1.2413155 -0.12402922 0.30228761
1.4395411 -0.15061019 0.30228761
1.637767 -0.17719118 0.30228761
1.8359927 -0.20377217 0.30228761
2.0342185 -0.23035318 0.30228761
2.232444 -0.25693414 0.30228761
2.43067 -0.28351513 0.30228761
2.43067 -0.28351513 0.30228761
2.4572508 -0.085289359 0.30228761
2.4838319 0.1129364 0.30228761
2.5104129 0.31116217 0.30228761
2.536994 0.50938791 0.30228761
2.5635748 0.70761365 0.30228761
2.5901558 0.9058395 0.30228761
2.6167369 1.1040652 0.30228761
2.6433177 1.3022909 0.30228761
2.6698987 1.5005167 0.30228761
2.6964798 1.6987425 0.30228761
2.7230608 1.8969682 0.30228761
2.7496417 2.0951941 0.30228761
2.7762227 2.2934196 0.30228761
2.8028038 2.4916453 0.30228761
2.8293848 2.6898713 0.30228761
2.8559656 2.888097 0.30228761
2.8825467 3.0863228 0.30228761
2.9091277 3.2845485 0.30228761
2.9357088 3.4827743 0.30228761
2.9622896 3.681 0.30228761
2.9888706 3.8792255 0.30228761
3.0154517 4.0774517 0.30228761
3.0420325 4.2756772 0.30228761
3.0686135 4.4739032 0.30228761
3.0951946 4.6721287 0.30228761
3.1217756 4.8703542 0.30228761
3.1483567 5.0685806 0.30228761
3.1749375 5.2668061 0.30228761
3.2015185 5.4650321 0.30228761
2.43067 -0.28351513 0.30228761
2.43067 -0.28351513 0.50228763
2.43067 -0.28351513 0.70228761
2.43067 -0.28351513 0.9022876
2.43067 -0.28351513 1.1022877
2.43067 -0.28351513 1.3022876
2.43067 -0.28351513 1.5022876
2.43067 -0.28351513 1.7022876
2.43067 -0.28351513 1.9022876
2.43067 -0.28351513 2.1022875
2.43067 -0.28351513 2.3022876
2.43067 -0.28351513 2.5022876
2.43067 -0.28351513 2.7022877
2.43067 -0.28351513 2.9022875
2.43067 -0.28351513 3.1022875
2.43067 -0.28351513 3.3022876
2.43067 -0.28351513 3.5022876
2.43067 -0.28351513 3.7022877
2.43067 -0.28351513 3.9022875
2.43067 -0.28351513 4.1022878
2.43067 -0.28351513 4.3022876
2.43067 -0.28351513 4.5022874
2.43067 -0.28351513 4.7022877
2.43067 -0.28351513 4.9022875
2.43067 -0.28351513 5.1022878
2.43067 -0.28351513 5.3022876
2.43067 -0.28351513 5.5022874
2.43067 -0.28351513 5.7022877
2.43067 -0.28351513 5.9022875
2.43067 -0.28351513 6.1022878
2.43067 -0.28351513 6.3022876
2.43067 -0.28351513 6.5022874
2.43067 -0.28351513 6.7022877
2.43067 -0.28351513 6.9022875
2.43067 -0.28351513 7.1022878
2.43067 -0.28351513 7.3022876
2.43067 -0.28351513 7.5022874
2.43067 -0.28351513 7.7022877
2.43067 -0.28351513 7.9022875
2.43067 -0.28351513 8.1022882
2.43067 -0.28351513 8.3022881
2.43067 -0.28351513 8.5022879
2.43067 -0.28351513 8.7022877
2.43067 -0.28351513 8.9022884
2.43067 -0.28351513 9.1022882
-0.34449065 0.088618673 0.30228761
-0.31790966 0.28684443 0.30228761
-0.29132867 0.4850702 0.30228761
-0.26474768 0.68329597 0.30228761
-0.23816669 0.8815217 0.30228761
-0.21158572 1.0797474 0.30228761
-0.18500473 1.2779733 0.30228761
-0.15842374 1.4761989 0.30228761
-0.13184275 1.6744248 0.30228761
-0.10526177 1.8726505 0.30228761
-0.078680784 2.0708764 0.30228761
-0.05209979 2.2691021 0.30228761
-0.025518797 2.4673278 0.30228761
0.0010621633 2.6655533 0.30228761
0.027643155 2.8637793 0.30228761
0.054224148 3.062005 0.30228761
0.080805138 3.2602308 0.30228761
0.10738613 3.4584568 0.30228761
0.13396709 3.6566823 0.30228761
0.16054809 3.854908 0.30228761
0.18712908 4.053134 0.30228761
0.21371004 4.2513595 0.30228761
0.24029106 4.4495854 0.30228761
0.26687202 4.6478109 0.30228761
0.29345304 4.8460369 0.30228761
0.320034 5.0442624 0.30228761
0.34661496 5.2424884 0.30228761
0.37319601 5.4407144 0.30228761
0.39977697 5.6389399 0.30228761
0.42635798 5.8371658 0.30228761
-0.34449065 0.088618673 0.30228761
-0.34449065 0.088618673 0.50228763
-0.34449065 0.088618673 0.70228761
-0.34449065 0.088618673 0.9022876
-0.34449065 0.088618673 1.1022877
-0.34449065 0.088618673 1.3022876
-0.34449065 0.088618673 1.5022876
-0.34449065 0.088618673 1.7022876
-0.34449065 0.088618673 1.9022876
-0.34449065 0.088618673 2.1022875
-0.34449065 0.088618673 2.3022876
-0.34449065 0.088618673 2.5022876
-0.34449065 0.088618673 2.7022877
-0.34449065 0.088618673 2.9022875
-0.34449065 0.088618673 3.1022875
-0.34449065 0.088618673 3.3022876
-0.34449065 0.088618673 3.5022876
-0.34449065 0.088618673 3.7022877
-0.34449065 0.088618673 3.9022875
-0.34449065 0.088618673 4.1022878
-0.34449065 0.088618673 4.3022876
-0.34449065 0.088618673 4.5022874
-0.34449065 0.088618673 4.7022877
-0.34449065 0.088618673 4.9022875
-0.34449065 0.088618673 5.1022878
-0.34449065 0.088618673 5.3022876
-0.34449065 0.088618673 5.5022874
-0.34449065 0.088618673 5.7022877
-0.34449065 0.088618673 5.9022875
-0.34449065 0.088618673 6.1022878
-0.34449065 0.088618673 6.3022876
-0.34449065 0.088618673 6.5022874
-0.34449065 0.088618673 6.7022877
-0.34449065 0.088618673 6.9022875
-0.34449065 0.088618673 7.1022878
-0.34449065 0.088618673 7.3022876
-0.34449065 0.088618673 7.5022874
-0.34449065 0.088618673 7.7022877
-0.34449065 0.088618673 7.9022875
-0.34449065 0.088618673 8.1022882
-0.34449065 0.088618673 8.3022881
-0.34449065 0.088618673 8.5022879
-0.34449065 0.088618673 8.7022877
-0.34449065 0.088618673 8.9022884
-0.34449065 0.088618673 9.1022882
-0.34449065 0.088618673 0.30228761
-0.31790966 0.28684443 0.30228761
-0.29132867 0.4850702 0.30228761
-0.26474768 0.68329597 0.30228761
-0.23816669 0.8815217 0.30228761
-0.21158572 1.0797474 0.30228761
-0.18500473 1.2779733 0.30228761
-0.15842374 1.4761989 0.30228761
-0.13184275 1.6744248 0.30228761
-0.10526177 1.8726505 0.30228761
-0.078680784 2.0708764 0.30228761
-0.05209979 2.2691021 0.30228761
-0.025518797 2.4673278 0.30228761
0.0010621633 2.6655533 0.30228761
0.027643155 2.8637793 0.30228761
0.054224148 3.062005 0.30228761
0.080805138 3.2602308 0.30228761
0.10738613 3.4584568 0.30228761
0.13396709 3.6566823 0.30228761
0.16054809 3.854908 0.30228761
0.18712908 4.053134 0.30228761
0.21371004 4.2513595 0.30228761
0.24029106 4.4495854 0.30228761
0.26687202 4.6478109 0.30228761
0.29345304 4.8460369 0.30228761
0.320034 5.0442624 0.30228761
0.34661496 5.2424884 0.30228761
0.37319601 5.4407144 0.30228761
0.39977697 5.6389399 0.30228761
0.42635798 5.8371658 0.30228761
-0.31790966 0.28684443 0.30228761
-0.31790966 0.28684443 0.50228763
-0.31790966 0.28684443 0.70228761
-0.31790966 0.28684443 0.9022876
-0.31790966 0.28684443 1.1022877
-0.31790966 0.28684443 1.3022876
-0.31790966 0.28684443 1.5022876
-0.31790966 0.28684443 1.7022876
-0.31790966 0.28684443 1.9022876
-0.31790966 0.28684443 2.1022875
-0.31790966 0.28684443 2.3022876
-0.31790966 0.28684443 2.5022876
-0.31790966 0.28684443 2.7022877
-0.31790966 0.28684443 2.9022875
-0.31790966 0.28684443 3.1022875
-0.31790966 0.28684443 3.3022876
-0.31790966 0.28684443 3.5022876
