# .PCD v0.7 - Point Cloud Data file format
VERSION 0.7
FIELDS x y z
SIZE 4 4 4
TYPE F F F
COUNT 1 1 1
WIDTH 1478
HEIGHT 1
VIEWPOINT 0 0 0 1 0 0 0
POINTS 1478
DATA ascii
0.38408101 -0.82825553 5.7837448
0.38408101 -0.82825553 5.9837451
0.38408101 -0.82825553 6.1837449
0.38408101 -0.82825553 6.3837452
0.38408101 -0.82825553 6.583745
0.38408101 -0.82825553 6.7837448
0.38408101 -0.82825553 6.9837451
0.38408101 -0.82825553 7.1837449
0.38408101 -0.82825553 7.3837452
0.38408101 -0.82825553 7.583745
0.38408101 -0.82825553 7.7837448
0.38408101 -0.82825553 7.9837446
0.38408101 -0.82825553 8.1837454
0.38408101 -0.82825553 8.3837452
-0.37555748 0.1006952 -0.41625497
-0.24895106 -0.054129917 -0.41625497
-0.12234466 -0.20895503 -0.41625497
0.0042617675 -0.36378017 -0.41625497
0.13086817 -0.51860529 -0.41625497
0.25747457 -0.67343038 -0.41625497
0.38408101 -0.82825553 -0.41625497
0.51068741 -0.98308063 -0.41625497
0.63729382 -1.1379057 -0.41625497
0.76390016 -1.2927308 -0.41625497
0.89050663 -1.447556 -0.41625497
1.0171131 -1.6023811 -0.41625497
1.1437196 -1.7572063 -0.41625497
1.2703258 -1.9120313 -0.41625497
1.3969322 -2.0668564 -0.41625497
0.51068741 -0.98308063 -0.41625497
0.6655125 -0.85647416 -0.41625497
0.82033759 -0.72986776 -0.41625497
0.97516274 -0.60326135 -0.41625497
1.1299878 -0.47665495 -0.41625497
1.2848129 -0.35004854 -0.41625497
1.4396381 -0.22344209 -0.41625497
1.5944632 -0.096835732 -0.41625497
1.7492883 0.029770708 -0.41625497
1.9041134 0.15637708 -0.41625497
2.0589385 0.28298351 -0.41625497
2.2137637 0.40958995 -0.41625497
2.3685889 0.53619641 -0.41625497
2.5234139 0.6628027 -0.41625497
2.6782389 0.7894091 -0.41625497
2.8330641 0.91601557 -0.41625497
2.9878893 1.042622 -0.41625497
3.1427145 1.1692284 -0.41625497
3.2975395 1.2958348 -0.41625497
3.4523644 1.4224412 -0.41625497
3.6071897 1.5490476 -0.41625497
3.7620146 1.6756539 -0.41625497
3.9168401 1.8022605 -0.41625497
4.0716648 1.9288667 -0.41625497
4.2264905 2.0554733 -0.41625497
4.3813152 2.1820798 -0.41625497
4.5361404 2.308686 -0.41625497
4.6909657 2.4352925 -0.41625497
4.8457904 2.5618989 -0.41625497
5.0006161 2.6885054 -0.41625497
0.51068741 -0.98308063 -0.41625497
0.51068741 -0.98308063 -0.21625498
0.51068741 -0.98308063 -0.016254975
0.51068741 -0.98308063 0.18374504
0.51068741 -0.98308063 0.38374504
0.51068741 -0.98308063 0.583745
0.51068741 -0.98308063 0.78374505
0.51068741 -0.98308063 0.98374498
0.51068741 -0.98308063 1.183745
0.51068741 -0.98308063 1.383745
0.51068741 -0.98308063 1.583745
0.51068741 -0.98308063 1.7837451
0.51068741 -0.98308063 1.9837451
0.51068741 -0.98308063 2.1837449
0.51068741 -0.98308063 2.383745
0.51068741 -0.98308063 2.583745
0.51068741 -0.98308063 2.7837451
0.51068741 -0.98308063 2.9837451
0.51068741 -0.98308063 3.1837449
0.51068741 -0.98308063 3.383745
0.51068741 -0.98308063 3.583745
0.51068741 -0.98308063 3.7837448
0.51068741 -0.98308063 3.9837451
0.51068741 -0.98308063 4.1837449
0.51068741 -0.98308063 4.3837452
0.51068741 -0.98308063 4.583745
0.51068741 -0.98308063 4.7837448
0.51068741 -0.98308063 4.9837451
0.51068741 -0.98308063 5.1837449
0.51068741 -0.98308063 5.3837452
0.51068741 -0.98308063 5.583745
0.51068741 -0.98308063 5.7837448
0.51068741 -0.98308063 5.9837451
0.51068741 -0.98308063 6.1837449
0.51068741 -0.98308063 6.3837452
0.51068741 -0.98308063 6.583745
0.51068741 -0.98308063 6.7837448
0.51068741 -0.98308063 6.9837451
0.51068741 -0.98308063 7.1837449
0.51068741 -0.98308063 7.3837452
0.51068741 -0.98308063 7.583745
0.51068741 -0.98308063 7.7837448
0.51068741 -0.98308063 7.9837446
0.51068741 -0.98308063 8.1837454
0.51068741 -0.98308063 8.3837452
-0.37555748 0.1006952 -0.41625497
-0.24895106 -0.054129917 -0.41625497
-0.12234466 -0.20895503 -0.41625497
0.0042617675 -0.36378017 -0.41625497
0.13086817 -0.51860529 -0.41625497
0.25747457 -0.67343038 -0.41625497
0.38408101 -0.82825553 -0.41625497
0.51068741 -0.98308063 -0.41625497
0.63729382 -1.1379057 -0.41625497
0.76390016 -1.2927308 -0.41625497
0.89050663 -1.447556 -0.41625497
1.0171131 -1.6023811 -0.41625497
1.1437196 -1.7572063 -0.41625497
1.2703258 -1.9120313 -0.41625497
1.3969322 -2.0668564 -0.41625497
0.63729382 -1.1379057 -0.41625497
0.79211897 -1.0112994 -0.41625497
0.94694406 -0.88469291 -0.41625497
1.1017692 -0.7580865 -0.41625497
1.2565943 -0.6314801 -0.41625497
1.4114194 -0.50487369 -0.41625497
1.5662446 -0.37826726 -0.41625497
1.7210696 -0.25166088 -0.41625497
1.8758948 -0.12505445 -0.41625497
2.0307198 0.0015519201 -0.41625497
2.185545 0.12815836 -0.41625497
2.3403702 0.2547648 -0.41625497
2.4951954 0.38137123 -0.41625497
2.6500204 0.50797755 -0.41625497
2.8048453 0.63458395 -0.41625497
2.9596705 0.76119041 -0.41625497
3.1144958 0.88779688 -0.41625497
3.269321 1.0144033 -0.41625497
3.4241459 1.1410096 -0.41625497
3.5789709 1.267616 -0.41625497
3.7337961 1.3942225 -0.41625497
3.8886211 1.5208287 -0.41625497
4.0434465 1.6474353 -0.41625497
4.1982713 1.7740417 -0.41625497
4.353097 1.9006482 -0.41625497
4.5079217 2.0272546 -0.41625497
4.6627469 2.1538608 -0.41625497
4.8175721 2.2804675 -0.41625497
4.9723969 2.4070737 -0.41625497
5.1272225 2.5336802 -0.41625497
0.63729382 -1.1379057 -0.41625497
0.63729382 -1.1379057 -0.21625498
0.63729382 -1.1379057 -0.016254975
0.63729382 -1.1379057 0.18374504
0.63729382 -1.1379057 0.38374504
0.63729382 -1.1379057 0.583745
0.63729382 -1.1379057 0.78374505
0.63729382 -1.1379057 0.98374498
0.63729382 -1.1379057 1.183745
0.63729382 -1.1379057 1.383745
0.63729382 -1.1379057 1.583745
0.63729382 -1.1379057 1.7837451
0.63729382 -1.1379057 1.9837451
0.63729382 -1.1379057 2.1837449
0.63729382 -1.1379057 2.383745
0.63729382 -1.1379057 2.583745
0.63729382 -1.1379057 2.7837451
0.63729382 -1.1379057 2.9837451
0.63729382 -1.1379057 3.1837449
0.63729382 -1.1379057 3.383745
0.63729382 -1.1379057 3.583745
0.63729382 -1.1379057 3.7837448
0.63729382 -1.1379057 3.9837451
0.63729382 -1.1379057 4.1837449
0.63729382 -1.1379057 4.3837452
0.63729382 -1.1379057 4.583745
0.63729382 -1.1379057 4.7837448
0.63729382 -1.1379057 4.9837451
0.63729382 -1.1379057 5.1837449
0.63729382 -1.1379057 5.3837452
0.63729382 -1.1379057 5.583745
0.63729382 -1.1379057 5.7837448
0.63729382 -1.1379057 5.9837451
0.63729382 -1.1379057 6.1837449
0.63729382 -1.1379057 6.3837452
0.63729382 -1.1379057 6.583745
0.63729382 -1.1379057 6.7837448
0.63729382 -1.1379057 6.9837451
0.63729382 -1.1379057 7.1837449
0.63729382 -1.1379057 7.3837452
0.63729382 -1.1379057 7.583745
0.63729382 -1.1379057 7.7837448
0.63729382 -1.1379057 7.9837446
0.63729382 -1.1379057 8.1837454
0.63729382 -1.1379057 8.3837452
-0.37555748 0.1006952 -0.41625497
-0.24895106 -0.054129917 -0.41625497
-0.12234466 -0.20895503 -0.41625497
0.0042617675 -0.36378017 -0.41625497
0.13086817 -0.51860529 -0.41625497
0.25747457 -0.67343038 -0.41625497
0.38408101 -0.82825553 -0.41625497
0.51068741 -0.98308063 -0.41625497
0.63729382 -1.1379057 -0.41625497
0.76390016 -1.2927308 -0.41625497
0.89050663 -1.447556 -0.41625497
1.0171131 -1.6023811 -0.41625497
1.1437196 -1.7572063 -0.41625497
1.2703258 -1.9120313 -0.41625497
1.3969322 -2.0668564 -0.41625497
0.76390016 -1.2927308 -0.41625497
0.91872531 -1.1661243 -0.41625497
1.0735505 -1.039518 -0.41625497
1.2283756 -0.91291153 -0.41625497
1.3832006 -0.78630513 -0.41625497
1.5380257 -0.65969878 -0.41625497
1.6928509 -0.53309232 -0.41625497
1.847676 -0.40648594 -0.41625497
2.0025012 -0.27987951 -0.41625497
2.1573262 -0.15327314 -0.41625497
2.3121514 -0.026666699 -0.41625497
2.4669764 0.099939741 -0.41625497
2.6218016 0.22654618 -0.41625497
2.7766266 0.35315248 -0.41625497
2.9314518 0.47975892 -0.41625497
3.086277 0.60636538 -0.41625497
3.241102 0.73297179 -0.41625497
3.3959272 0.85957825 -0.41625497
3.5507522 0.98618454 -0.41625497
3.7055774 1.1127909 -0.41625497
3.8604026 1.2393974 -0.41625497
4.0152273 1.3660038 -0.41625497
4.170053 1.4926103 -0.41625497
4.3248777 1.6192166 -0.41625497
4.4797029 1.7458231 -0.41625497
4.6345282 1.8724295 -0.41625497
4.7893529 1.9990357 -0.41625497
4.9441786 2.1256423 -0.41625497
5.0990033 2.2522485 -0.41625497
5.2538285 2.3788552 -0.41625497
0.76390016 -1.2927308 -0.41625497
0.76390016 -1.2927308 -0.21625498
0.76390016 -1.2927308 -0.016254975
0.76390016 -1.2927308 0.18374504
0.76390016 -1.2927308 0.38374504
0.76390016 -1.2927308 0.583745
0.76390016 -1.2927308 0.78374505
0.76390016 -1.2927308 0.98374498
0.76390016 -1.2927308 1.183745
0.76390016 -1.2927308 1.383745
0.76390016 -1.2927308 1.583745
0.76390016 -1.2927308 1.7837451
0.76390016 -1.2927308 1.9837451
0.76390016 -1.2927308 2.1837449
0.76390016 -1.2927308 2.383745
0.76390016 -1.2927308 2.583745
0.76390016 -1.2927308 2.7837451
0.76390016 -1.2927308 2.9837451
0.76390016 -1.2927308 3.1837449
0.76390016 -1.2927308 3.383745
0.76390016 -1.2927308 3.583745
0.76390016 -1.2927308 3.7837448
0.76390016 -1.2927308 3.9837451
0.76390016 -1.2927308 4.1837449
0.76390016 -1.2927308 4.3837452
0.76390016 -1.2927308 4.583745
0.76390016 -1.2927308 4.7837448
0.76390016 -1.2927308 4.9837451
0.76390016 -1.2927308 5.1837449
0.76390016 -1.2927308 5.3837452
0.76390016 -1.2927308 5.583745
0.76390016 -1.2927308 5.7837448
0.76390016 -1.2927308 5.9837451
0.76390016 -1.2927308 6.1837449
0.76390016 -1.2927308 6.3837452
0.76390016 -1.2927308 6.583745
0.76390016 -1.2927308 6.7837448
0.76390016 -1.2927308 6.9837451
0.76390016 -1.2927308 7.1837449
0.76390016 -1.2927308 7.3837452
0.76390016 -1.2927308 7.583745
0.76390016 -1.2927308 7.7837448
0.76390016 -1.2927308 7.9837446
0.76390016 -1.2927308 8.1837454
0.76390016 -1.2927308 8.3837452
-0.37555748 0.1006952 -0.41625497
-0.24895106 -0.054129917 -0.41625497
-0.12234466 -0.20895503 -0.41625497
0.0042617675 -0.36378017 -0.41625497
0.13086817 -0.51860529 -0.41625497
0.25747457 -0.67343038 -0.41625497
0.38408101 -0.82825553 -0.41625497
0.51068741 -0.98308063 -0.41625497
0.63729382 -1.1379057 -0.41625497
0.76390016 -1.2927308 -0.41625497
0.89050663 -1.447556 -0.41625497
1.0171131 -1.6023811 -0.41625497
1.1437196 -1.7572063 -0.41625497
1.2703258 -1.9120313 -0.41625497
1.3969322 -2.0668564 -0.41625497
0.89050663 -1.447556 -0.41625497
1.0453317 -1.3209496 -0.41625497
1.2001568 -1.1943431 -0.41625497
1.354982 -1.0677367 -0.41625497
1.5098071 -0.94113034 -0.41625497
1.6646322 -0.81452394 -0.41625497
1.8194574 -0.68791747 -0.41625497
1.9742824 -0.56131113 -0.41625497
2.1291075 -0.43470466 -0.41625497
2.2839327 -0.30809829 -0.41625497
2.4387579 -0.18149185 -0.41625497
2.5935829 -0.05488541 -0.41625497
2.7484081 0.071721032 -0.41625497
2.9032331 0.19832732 -0.41625497
3.0580583 0.32493377 -0.41625497
3.2128835 0.4515402 -0.41625497
3.3677084 0.57814664 -0.41625497
3.5225337 0.7047531 -0.41625497
3.6773586 0.83135939 -0.41625497
3.8321838 0.95796579 -0.41625497
3.987009 1.0845723 -0.41625497
4.1418338 1.2111785 -0.41625497
4.2966595 1.3377851 -0.41625497
4.4514842 1.4643915 -0.41625497
4.6063094 1.5909981 -0.41625497
4.7611346 1.7176043 -0.41625497
4.9159594 1.8442106 -0.41625497
5.070785 1.9708172 -0.41625497
5.2256098 2.0974236 -0.41625497
5.380435 2.22403 -0.41625497
0.89050663 -1.447556 -0.41625497
0.89050663 -1.447556 -0.21625498
0.89050663 -1.447556 -0.016254975
0.89050663 -1.447556 0.18374504
0.89050663 -1.447556 0.38374504
0.89050663 -1.447556 0.583745
0.89050663 -1.447556 0.78374505
0.89050663 -1.447556 0.98374498
0.89050663 -1.447556 1.183745
0.89050663 -1.447556 1.383745
0.89050663 -1.447556 1.583745
0.89050663 -1.447556 1.7837451
0.89050663 -1.447556 1.9837451
0.89050663 -1.447556 2.1837449
0.89050663 -1.447556 2.383745
0.89050663 -1.447556 2.583745
0.89050663 -1.447556 2.7837451
0.89050663 -1.447556 2.9837451
0.89050663 -1.447556 3.1837449
0.89050663 -1.447556 3.383745
0.89050663 -1.447556 3.583745
0.89050663 -1.447556 3.7837448
0.89050663 -1.447556 3.9837451
0.89050663 -1.447556 4.1837449
0.89050663 -1.447556 4.3837452
0.89050663 -1.447556 4.583745
0.89050663 -1.447556 4.7837448
0.89050663 -1.447556 4.9837451
0.89050663 -1.447556 5.1837449
0.89050663 -1.447556 5.3837452
0.89050663 -1.447556 5.583745
0.89050663 -1.447556 5.7837448
0.89050663 -1.447556 5.9837451
0.89050663 -1.447556 6.1837449
0.89050663 -1.447556 6.3837452
0.89050663 -1.447556 6.583745
0.89050663 -1.447556 6.7837448
0.89050663 -1.447556 6.9837451
0.89050663 -1.447556 7.1837449
0.89050663 -1.447556 7.3837452
0.89050663 -1.447556 7.583745
0.89050663 -1.447556 7.7837448
0.89050663 -1.447556 7.9837446
0.89050663 -1.447556 8.1837454
0.89050663 -1.447556 8.3837452
-0.37555748 0.1006952 -0.41625497
-0.24895106 -0.054129917 -0.41625497
-0.12234466 -0.20895503 -0.41625497
0.0042617675 -0.36378017 -0.41625497
0.13086817 -0.51860529 -0.41625497
0.25747457 -0.67343038 -0.41625497
0.38408101 -0.82825553 -0.41625497
0.51068741 -0.98308063 -0.41625497
0.63729382 -1.1379057 -0.41625497
0.76390016 -1.2927308 -0.41625497
0.89050663 -1.447556 -0.41625497
1.0171131 -1.6023811 -0.41625497
1.1437196 -1.7572063 -0.41625497
1.2703258 -1.9120313 -0.41625497
1.3969322 -2.0668564 -0.41625497
1.0171131 -1.6023811 -0.41625497
1.1719382 -1.4757746 -0.41625497
1.3267633 -1.3491683 -0.41625497
1.4815885 -1.2225618 -0.41625497
1.6364136 -1.0959555 -0.41625497
1.7912387 -0.96934909 -0.41625497
1.9460638 -0.84274262 -0.41625497
2.100889 -0.71613628 -0.41625497
2.2557139 -0.58952981 -0.41625497
2.4105392 -0.46292344 -0.41625497
2.5653641 -0.336317 -0.41625497
2.7201893 -0.20971057 -0.41625497
2.8750145 -0.083104126 -0.41625497
3.0298395 0.043502167 -0.41625497
3.1846647 0.1701086 -0.41625497
3.3394897 0.29671505 -0.41625497
3.4943149 0.42332149 -0.41625497
3.6491401 0.54992795 -0.41625497
3.8039651 0.67653424 -0.41625497
3.9587903 0.80314064 -0.41625497
4.1136155 0.9297471 -0.41625497
4.2684402 1.0563534 -0.41625497
4.4232659 1.18296 -0.41625497
4.5780907 1.3095663 -0.41625497
4.7329159 1.4361728 -0.41625497
4.8877411 1.5627792 -0.41625497
5.0425658 1.6893854 -0.41625497
5.1973915 1.815992 -0.41625497
5.3522162 1.9425983 -0.41625497
5.5070415 2.0692048 -0.41625497
1.0171131 -1.6023811 -0.41625497
1.0171131 -1.6023811 -0.21625498
1.0171131 -1.6023811 -0.016254975
1.0171131 -1.6023811 0.18374504
1.0171131 -1.6023811 0.38374504
1.0171131 -1.6023811 0.583745
1.0171131 -1.6023811 0.78374505
1.0171131 -1.6023811 0.98374498
1.0171131 -1.6023811 1.183745
1.0171131 -1.6023811 1.383745
1.0171131 -1.6023811 1.583745
1.0171131 -1.6023811 1.7837451
1.0171131 -1.6023811 1.9837451
1.0171131 -1.6023811 2.1837449
1.0171131 -1.6023811 2.383745
1.0171131 -1.6023811 2.583745
1.0171131 -1.6023811 2.7837451
1.0171131 -1.6023811 2.9837451
1.0171131 -1.6023811 3.1837449
1.0171131 -1.6023811 3.383745
1.0171131 -1.6023811 3.583745
1.0171131 -1.6023811 3.7837448
1.0171131 -1.6023811 3.9837451
1.0171131 -1.6023811 4.1837449
1.0171131 -1.6023811 4.3837452
1.0171131 -1.6023811 4.583745
1.0171131 -1.6023811 4.7837448
1.0171131 -1.6023811 4.9837451
1.0171131 -1.6023811 5.1837449
1.0171131 -1.6023811 5.3837452
1.0171131 -1.6023811 5.583745
1.0171131 -1.6023811 5.7837448
1.0171131 -1.6023811 5.9837451
1.0171131 -1.6023811 6.1837449
1.0171131 -1.6023811 6.3837452
1.0171131 -1.6023811 6.583745
1.0171131 -1.6023811 6.7837448
1.0171131 -1.6023811 6.9837451
1.0171131 -1.6023811 7.1837449
1.0171131 -1.6023811 7.3837452
1.0171131 -1.6023811 7.583745
1.0171131 -1.6023811 7.7837448
1.0171131 -1.6023811 7.9837446
1.0171131 -1.6023811 8.1837454
1.0171131 -1.6023811 8.3837452
-0.37555748 0.1006952 -0.41625497
-0.24895106 -0.054129917 -0.41625497
-0.12234466 -0.20895503 -0.41625497
0.0042617675 -0.36378017 -0.41625497
0.13086817 -0.51860529 -0.41625497
0.25747457 -0.67343038 -0.41625497
0.38408101 -0.82825553 -0.41625497
0.51068741 -0.98308063 -0.41625497
0.63729382 -1.1379057 -0.41625497
0.76390016 -1.2927308 -0.41625497
0.89050663 -1.447556 -0.41625497
1.0171131 -1.6023811 -0.41625497
1.1437196 -1.7572063 -0.41625497
1.2703258 -1.9120313 -0.41625497
1.3969322 -2.0668564 -0.41625497
1.1437196 -1.7572063 -0.41625497
1.2985446 -1.6305999 -0.41625497
1.4533697 -1.5039934 -0.41625497
1.6081948 -1.377387 -0.41625497
1.76302 -1.2507806 -0.41625497
1.9178451 -1.1241742 -0.41625497
2.0726702 -0.99756777 -0.41625497
2.2274952 -0.87096143 -0.41625497
2.3823204 -0.74435496 -0.41625497
2.5371456 -0.61774862 -0.41625497
2.6919706 -0.49114215 -0.41625497
2.8467958 -0.36453572 -0.41625497
3.001621 -0.23792927 -0.41625497
3.156446 -0.11132298 -0.41625497
3.3112712 0.015283455 -0.41625497
3.4660962 0.1418899 -0.41625497
3.6209214 0.26849633 -0.41625497
3.7757466 0.39510277 -0.41625497
3.9305716 0.52170908 -0.41625497
4.0853968 0.64831549 -0.41625497
4.240222 0.77492195 -0.41625497
4.3950467 0.90152824 -0.41625497
4.5498719 1.0281348 -0.41625497
4.7046971 1.1547412 -0.41625497
4.8595223 1.2813478 -0.41625497
5.0143476 1.407954 -0.41625497
5.1691723 1.5345603 -0.41625497
5.3239975 1.6611669 -0.41625497
5.4788227 1.7877731 -0.41625497
5.6336479 1.9143797 -0.41625497
1.1437196 -1.7572063 -0.41625497
1.1437196 -1.7572063 -0.21625498
1.1437196 -1.7572063 -0.016254975
1.1437196 -1.7572063 0.18374504
1.1437196 -1.7572063 0.38374504
1.1437196 -1.7572063 0.583745
1.1437196 -1.7572063 0.78374505
1.1437196 -1.7572063 0.98374498
1.1437196 -1.7572063 1.183745
1.1437196 -1.7572063 1.383745
1.1437196 -1.7572063 1.583745
1.1437196 -1.7572063 1.7837451
1.1437196 -1.7572063 1.9837451
1.1437196 -1.7572063 2.1837449
1.1437196 -1.7572063 2.383745
1.1437196 -1.7572063 2.583745
1.1437196 -1.7572063 2.7837451
1.1437196 -1.7572063 2.9837451
1.1437196 -1.7572063 3.1837449
1.1437196 -1.7572063 3.383745
1.1437196 -1.7572063 3.583745
1.1437196 -1.7572063 3.7837448
1.1437196 -1.7572063 3.9837451
1.1437196 -1.7572063 4.1837449
1.1437196 -1.7572063 4.3837452
1.1437196 -1.7572063 4.583745
1.1437196 -1.7572063 4.7837448
1.1437196 -1.7572063 4.9837451
1.1437196 -1.7572063 5.1837449
1.1437196 -1.7572063 5.3837452
1.1437196 -1.7572063 5.583745
1.1437196 -1.7572063 5.7837448
1.1437196 -1.7572063 5.9837451
1.1437196 -1.7572063 6.1837449
1.1437196 -1.7572063 6.3837452
1.1437196 -1.7572063 6.583745
1.1437196 -1.7572063 6.7837448
1.1437196 -1.7572063 6.9837451
1.1437196 -1.7572063 7.1837449
1.1437196 -1.7572063 7.3837452
1.1437196 -1.7572063 7.583745
1.1437196 -1.7572063 7.7837448
1.1437196 -1.7572063 7.9837446
1.1437196 -1.7572063 8.1837454
1.1437196 -1.7572063 8.3837452
-0.37555748 0.1006952 -0.41625497
-0.24895106 -0.054129917 -0.41625497
-0.12234466 -0.20895503 -0.41625497
0.0042617675 -0.36378017 -0.41625497
0.13086817 -0.51860529 -0.41625497
0.25747457 -0.67343038 -0.41625497
0.38408101 -0.82825553 -0.41625497
0.51068741 -0.98308063 -0.41625497
0.63729382 -1.1379057 -0.41625497
0.76390016 -1.2927308 -0.41625497
0.89050663 -1.447556 -0.41625497
1.0171131 -1.6023811 -0.41625497
1.1437196 -1.7572063 -0.41625497
1.2703258 -1.9120313 -0.41625497
1.3969322 -2.0668564 -0.41625497
1.2703258 -1.9120313 -0.41625497
1.4251509 -1.7854248 -0.41625497
1.5799761 -1.6588184 -0.41625497
1.7348012 -1.532212 -0.41625497
1.8896263 -1.4056056 -0.41625497
2.0444515 -1.2789992 -0.41625497
2.1992764 -1.1523927 -0.41625497
2.3541017 -1.0257864 -0.41625497
2.5089269 -0.89917994 -0.41625497
2.6637518 -0.77257359 -0.41625497
2.8185771 -0.64596713 -0.41625497
2.973402 -0.51936066 -0.41625497
3.1282272 -0.39275426 -0.41625497
3.2830522 -0.26614794 -0.41625497
3.4378774 -0.13954151 -0.41625497
3.5927026 -0.012935072 -0.41625497
3.7475276 0.11367137 -0.41625497
3.9023528 0.24027781 -0.41625497
4.057178 0.36688411 -0.41625497
4.2120028 0.49349055 -0.41625497
4.366828 0.62009698 -0.41625497
4.5216532 0.74670327 -0.41625497
4.6764784 0.87330985 -0.41625497
4.8313036 0.99991614 -0.41625497
4.9861288 1.1265228 -0.41625497
5.1409535 1.253129 -0.41625497
5.2957788 1.3797354 -0.41625497
5.450604 1.5063419 -0.41625497
5.6054292 1.6329482 -0.41625497
5.7602544 1.7595549 -0.41625497
1.2703258 -1.9120313 -0.41625497
1.2703258 -1.9120313 -0.21625498
1.2703258 -1.9120313 -0.016254975
1.2703258 -1.9120313 0.18374504
1.2703258 -1.9120313 0.38374504
1.2703258 -1.9120313 0.583745
1.2703258 -1.9120313 0.78374505
1.2703258 -1.9120313 0.98374498
1.2703258 -1.9120313 1.183745
1.2703258 -1.9120313 1.383745
1.2703258 -1.9120313 1.583745
1.2703258 -1.9120313 1.7837451
1.2703258 -1.9120313 1.9837451
1.2703258 -1.9120313 2.1837449
1.2703258 -1.9120313 2.383745
1.2703258 -1.9120313 2.583745
1.2703258 -1.9120313 2.7837451
1.2703258 -1.9120313 2.9837451
1.2703258 -1.9120313 3.1837449
1.2703258 -1.9120313 3.383745
1.2703258 -1.9120313 3.583745
1.2703258 -1.9120313 3.7837448
1.2703258 -1.9120313 3.9837451
1.2703258 -1.9120313 4.1837449
1.2703258 -1.9120313 4.3837452
1.2703258 -1.9120313 4.583745
1.2703258 -1.9120313 4.7837448
1.2703258 -1.9120313 4.9837451
1.2703258 -1.9120313 5.1837449
1.2703258 -1.9120313 5.3837452
1.2703258 -1.9120313 5.583745
1.2703258 -1.9120313 5.7837448
1.2703258 -1.9120313 5.9837451
1.2703258 -1.9120313 6.1837449
1.2703258 -1.9120313 6.3837452
1.2703258 -1.9120313 6.583745
1.2703258 -1.9120313 6.7837448
1.2703258 -1.9120313 6.9837451
1.2703258 -1.9120313 7.1837449
1.2703258 -1.9120313 7.3837452
1.2703258 -1.9120313 7.583745
1.2703258 -1.9120313 7.7837448
1.2703258 -1.9120313 7.9837446
1.2703258 -1.9120313 8.1837454
1.2703258 -1.9120313 8.3837452
-0.37555748 0.1006952 -0.41625497
-0.24895106 -0.054129917 -0.41625497
-0.12234466 -0.20895503 -0.41625497
0.0042617675 -0.36378017 -0.41625497
0.13086817 -0.51860529 -0.41625497
0.25747457 -0.67343038 -0.41625497
0.38408101 -0.82825553 -0.41625497
0.51068741 -0.98308063 -0.41625497
0.63729382 -1.1379057 -0.41625497
0.76390016 -1.2927308 -0.41625497
0.89050663 -1.447556 -0.41625497
1.0171131 -1.6023811 -0.41625497
1.1437196 -1.7572063 -0.41625497
1.2703258 -1.9120313 -0.41625497
1.3969322 -2.0668564 -0.41625497
1.3969322 -2.0668564 -0.41625497
1.5517573 -1.94025 -0.41625497
1.7065824 -1.8136436 -0.41625497
1.8614076 -1.6870371 -0.41625497
2.0162327 -1.5604308 -0.41625497
2.1710579 -1.4338243 -0.41625497
2.3258829 -1.3072178 -0.41625497
2.4807081 -1.1806115 -0.41625497
2.6355331 -1.0540051 -0.41625497
2.7903583 -0.92739874 -0.41625497
2.9451835 -0.80079228 -0.41625497
3.1000085 -0.67418581 -0.41625497
3.2548337 -0.54757941 -0.41625497
3.4096587 -0.42097312 -0.41625497
3.5644839 -0.29436666 -0.41625497
3.7193091 -0.16776022 -0.41625497
3.8741341 -0.041153785 -0.41625497
4.0289593 0.085452653 -0.41625497
4.1837845 0.21205895 -0.41625497
4.3386092 0.3386654 -0.41625497
4.4934344 0.46527183 -0.41625497
4.6482596 0.59187812 -0.41625497
4.8030849 0.7184847 -0.41625497
4.9579101 0.84509099 -0.41625497
5.1127353 0.97169757 -0.41625497
5.26756 1.0983039 -0.41625497
5.4223852 1.2249101 -0.41625497
5.5772104 1.3515167 -0.41625497
5.7320356 1.4781231 -0.41625497
5.8868608 1.6047297 -0.41625497
1.3969322 -2.0668564 -0.41625497
1.3969322 -2.0668564 -0.21625498
1.3969322 -2.0668564 -0.016254975
1.3969322 -2.0668564 0.18374504
1.3969322 -2.0668564 0.38374504
1.3969322 -2.0668564 0.583745
1.3969322 -2.0668564 0.78374505
1.3969322 -2.0668564 0.98374498
1.3969322 -2.0668564 1.183745
1.3969322 -2.0668564 1.383745
1.3969322 -2.0668564 1.583745
1.3969322 -2.0668564 1.7837451
1.3969322 -2.0668564 1.9837451
1.3969322 -2.0668564 2.1837449
1.3969322 -2.0668564 2.383745
1.3969322 -2.0668564 2.583745
1.3969322 -2.0668564 2.7837451
1.3969322 -2.0668564 2.9837451
1.3969322 -2.0668564 3.1837449
1.3969322 -2.0668564 3.383745
1.3969322 -2.0668564 3.583745
1.3969322 -2.0668564 3.7837448
1.3969322 -2.0668564 3.9837451
1.3969322 -2.0668564 4.1837449
1.3969322 -2.0668564 4.3837452
1.3969322 -2.0668564 4.583745
1.3969322 -2.0668564 4.7837448
1.3969322 -2.0668564 4.9837451
1.3969322 -2.0668564 5.1837449
1.3969322 -2.0668564 5.3837452
1.3969322 -2.0668564 5.583745
1.3969322 -2.0668564 5.7837448
1.3969322 -2.0668564 5.9837451
1.3969322 -2.0668564 6.1837449
1.3969322 -2.0668564 6.3837452
1.3969322 -2.0668564 6.583745
1.3969322 -2.0668564 6.7837448
1.3969322 -2.0668564 6.9837451
1.3969322 -2.0668564 7.1837449
1.3969322 -2.0668564 7.3837452
1.3969322 -2.0668564 7.583745
1.3969322 -2.0668564 7.7837448
1.3969322 -2.0668564 7.9837446
1.3969322 -2.0668564 8.1837454
1.3969322 -2.0668564 8.3837452
-0.37555748 0.1006952 -0.41625497
-0.22073236 0.22730161 -0.41625497
-0.065907247 0.35390803 -0.41625497
0.088917889 0.48051444 -0.41625497
0.24374299 0.60712087 -0.41625497
0.39856809 0.73372728 -0.41625497
0.55339324 0.86033368 -0.41625497
0.70821834 0.98694009 -0.41625497
0.86304349 1.1135465 -0.41625497
1.0178685 1.2401528 -0.41625497
1.1726937 1.3667593 -0.41625497
1.3275188 1.4933658 -0.41625497
1.482344 1.6199722 -0.41625497
1.637169 1.7465785 -0.41625497
1.7919941 1.8731849 -0.41625497
1.9468193 1.9997914 -0.41625497
2.1016445 2.1263978 -0.41625497
2.2564695 2.2530043 -0.41625497
2.4112945 2.3796105 -0.41625497
2.5661197 2.506217 -0.41625497
2.7209449 2.6328235 -0.41625497
2.8757699 2.7594297 -0.41625497
3.0305951 2.8860364 -0.41625497
3.18542 3.0126426 -0.41625497
3.3402455 3.1392491 -0.41625497
3.4950705 3.2658556 -0.41625497
3.6498954 3.3924618 -0.41625497
3.8047206 3.5190685 -0.41625497
3.9595456 3.6456747 -0.41625497
4.1143708 3.7722812 -0.41625497
-0.37555748 0.1006952 -0.41625497
-0.37555748 0.1006952 -0.21625498
-0.37555748 0.1006952 -0.016254975
-0.37555748 0.1006952 0.18374504
-0.37555748 0.1006952 0.38374504
-0.37555748 0.1006952 0.583745
-0.37555748 0.1006952 0.78374505
-0.37555748 0.1006952 0.98374498
-0.37555748 0.1006952 1.183745
-0.37555748 0.1006952 1.383745
-0.37555748 0.1006952 1.583745
-0.37555748 0.1006952 1.7837451
-0.37555748 0.1006952 1.9837451
-0.37555748 0.1006952 2.1837449
-0.37555748 0.1006952 2.383745
-0.37555748 0.1006952 2.583745
-0.37555748 0.1006952 2.7837451
-0.37555748 0.1006952 2.9837451
-0.37555748 0.1006952 3.1837449
-0.37555748 0.1006952 3.383745
-0.37555748 0.1006952 3.583745
-0.37555748 0.1006952 3.7837448
-0.37555748 0.1006952 3.9837451
-0.37555748 0.1006952 4.1837449
-0.37555748 0.1006952 4.3837452
-0.37555748 0.1006952 4.583745
-0.37555748 0.1006952 4.7837448
-0.37555748 0.1006952 4.9837451
-0.37555748 0.1006952 5.1837449
-0.37555748 0.1006952 5.3837452
-0.37555748 0.1006952 5.583745
-0.37555748 0.1006952 5.7837448
-0.37555748 0.1006952 5.9837451
-0.37555748 0.1006952 6.1837449
-0.37555748 0.1006952 6.3837452
-0.37555748 0.1006952 6.583745
-0.37555748 0.1006952 6.7837448
-0.37555748 0.1006952 6.9837451
-0.37555748 0.1006952 7.1837449
-0.37555748 0.1006952 7.3837452
-0.37555748 0.1006952 7.583745
-0.37555748 0.1006952 7.7837448
-0.37555748 0.1006952 7.9837446
-0.37555748 0.1006952 8.1837454
-0.37555748 0.1006952 8.3837452
-0.37555748 0.1006952 -0.41625497
-0.22073236 0.22730161 -0.41625497
-0.065907247 0.35390803 -0.41625497
0.088917889 0.48051444 -0.41625497
0.24374299 0.60712087 -0.41625497
0.39856809 0.73372728 -0.41625497
0.55339324 0.86033368 -0.41625497
0.70821834 0.98694009 -0.41625497
0.86304349 1.1135465 -0.41625497
1.0178685 1.2401528 -0.41625497
1.1726937 1.3667593 -0.41625497
1.3275188 1.4933658 -0.41625497
1.482344 1.6199722 -0.41625497
1.637169 1.7465785 -0.41625497
1.7919941 1.8731849 -0.41625497
1.9468193 1.9997914 -0.41625497
2.1016445 2.1263978 -0.41625497
2.2564695 2.2530043 -0.41625497
2.4112945 2.3796105 -0.41625497
2.5661197 2.506217 -0.41625497
2.7209449 2.6328235 -0.41625497
2.8757699 2.7594297 -0.41625497
3.0305951 2.8860364 -0.41625497
3.18542 3.0126426 -0.41625497
3.3402455 3.1392491 -0.41625497
3.4950705 3.2658556 -0.41625497
3.6498954 3.3924618 -0.41625497
3.8047206 3.5190685 -0.41625497
3.9595456 3.6456747 -0.41625497
4.1143708 3.7722812 -0.41625497
-0.22073236 0.22730161 -0.41625497
-0.22073236 0.22730161 -0.21625498
-0.22073236 0.22730161 -0.016254975
-0.22073236 0.22730161 0.18374504
-0.22073236 0.22730161 0.38374504
-0.22073236 0.22730161 0.583745
-0.22073236 0.22730161 0.78374505
-0.22073236 0.22730161 0.98374498
-0.22073236 0.22730161 1.183745
-0.22073236 0.22730161 1.383745
-0.22073236 0.22730161 1.583745
-0.22073236 0.22730161 1.7837451
-0.22073236 0.22730161 1.9837451
-0.22073236 0.22730161 2.1837449
-0.22073236 0.22730161 2.383745
-0.22073236 0.22730161 2.583745
-0.22073236 0.22730161 2.7837451
-0.22073236 0.22730161 2.9837451
-0.22073236 0.22730161 3.1837449
-0.22073236 0.22730161 3.383745
-0.22073236 0.22730161 3.583745
-0.22073236 0.22730161 3.7837448
-0.22073236 0.22730161 3.9837451
-0.22073236 0.22730161 4.1837449
-0.22073236 0.22730161 4.3837452
-0.22073236 0.22730161 4.583745
-0.22073236 0.22730161 4.7837448
-0.22073236 0.22730161 4.9837451
-0.22073236 0.22730161 5.1837449
-0.22073236 0.22730161 5.3837452
-0.22073236 0.22730161 5.583745
-0.22073236 0.22730161 5.7837448
-0.22073236 0.22730161 5.9837451
-0.22073236 0.22730161 6.1837449
-0.22073236 0.22730161 6.3837452
-0.22073236 0.22730161 6.583745
-0.22073236 0.22730161 6.7837448
-0.22073236 0.22730161 6.9837451
-0.22073236 0.22730161 7.1837449
-0.22073236 0.22730161 7.3837452
-0.22073236 0.22730161 7.583745
-0.22073236 0.22730161 7.7837448
-0.22073236 0.22730161 7.9837446
-0.22073236 0.22730161 8.1837454
-0.22073236 0.22730161 8.3837452
-0.37555748 0.1006952 -0.41625497
-0.22073236 0.22730161 -0.41625497
-0.065907247 0.35390803 -0.41625497
0.088917889 0.48051444 -0.41625497
0.24374299 0.60712087 -0.41625497
0.39856809 0.73372728 -0.41625497
0.55339324 0.86033368 -0.41625497
0.70821834 0.98694009 -0.41625497
0.86304349 1.1135465 -0.41625497
1.0178685 1.2401528 -0.41625497
1.1726937 1.3667593 -0.41625497
1.3275188 1.4933658 -0.41625497
1.482344 1.6199722 -0.41625497
1.637169 1.7465785 -0.41625497
1.7919941 1.8731849 -0.41625497
1.9468193 1.9997914 -0.41625497
2.1016445 2.1263978 -0.41625497
2.2564695 2.2530043 -0.41625497
2.4112945 2.3796105 -0.41625497
2.5661197 2.506217 -0.41625497
2.7209449 2.6328235 -0.41625497
2.8757699 2.7594297 -0.41625497
3.0305951 2.8860364 -0.41625497
3.18542 3.0126426 -0.41625497
3.3402455 3.1392491 -0.41625497
3.4950705 3.2658556 -0.41625497
3.6498954 3.3924618 -0.41625497
3.8047206 3.5190685 -0.41625497
3.9595456 3.6456747 -0.41625497
4.1143708 3.7722812 -0.41625497
-0.065907247 0.35390803 -0.41625497
-0.065907247 0.35390803 -0.21625498
-0.065907247 0.35390803 -0.016254975
-0.065907247 0.35390803 0.18374504
-0.065907247 0.35390803 0.38374504
-0.065907247 0.35390803 0.583745
-0.065907247 0.35390803 0.78374505
-0.065907247 0.35390803 0.98374498
-0.065907247 0.35390803 1.183745
-0.065907247 0.35390803 1.383745
-0.065907247 0.35390803 1.583745
-0.065907247 0.35390803 1.7837451
-0.065907247 0.35390803 1.9837451
-0.065907247 0.35390803 2.1837449
-0.065907247 0.35390803 2.383745
-0.065907247 0.35390803 2.583745
-0.065907247 0.35390803 2.7837451
-0.065907247 0.35390803 2.9837451
-0.065907247 0.35390803 3.1837449
-0.065907247 0.35390803 3.383745
-0.065907247 0.35390803 3.583745
-0.065907247 0.35390803 3.7837448
-0.065907247 0.35390803 3.9837451
-0.065907247 0.35390803 4.1837449
-0.065907247 0.35390803 4.3837452
-0.065907247 0.35390803 4.583745
-0.065907247 0.35390803 4.7837448
-0.065907247 0.35390803 4.9837451
-0.065907247 0.35390803 5.1837449
-0.065907247 0.35390803 5.3837452
-0.065907247 0.35390803 5.583745
-0.065907247 0.35390803 5.7837448
-0.065907247 0.35390803 5.9837451
-0.065907247 0.35390803 6.1837449
-0.065907247 0.35390803 6.3837452
-0.065907247 0.35390803 6.583745
-0.065907247 0.35390803 6.7837448
-0.065907247 0.35390803 6.9837451
-0.065907247 0.35390803 7.1837449
-0.065907247 0.35390803 7.3837452
-0.065907247 0.35390803 7.583745
-0.065907247 0.35390803 7.7837448
-0.065907247 0.35390803 7.9837446
-0.065907247 0.35390803 8.1837454
-0.065907247 0.35390803 8.3837452
-0.37555748 0.1006952 -0.41625497
-0.22073236 0.22730161 -0.41625497
-0.065907247 0.35390803 -0.41625497
0.088917889 0.48051444 -0.41625497
0.24374299 0.60712087 -0.41625497
0.39856809 0.73372728 -0.41625497
0.55339324 0.86033368 -0.41625497
0.70821834 0.98694009 -0.41625497
0.86304349 1.1135465 -0.41625497
1.0178685 1.2401528 -0.41625497
1.1726937 1.3667593 -0.41625497
1.3275188 1.4933658 -0.41625497
1.482344 1.6199722 -0.41625497
1.637169 1.7465785 -0.41625497
1.7919941 1.8731849 -0.41625497
1.9468193 1.9997914 -0.41625497
2.1016445 2.1263978 -0.41625497
2.2564695 2.2530043 -0.41625497
2.4112945 2.3796105 -0.41625497
2.5661197 2.506217 -0.41625497
2.7209449 2.6328235 -0.41625497
2.8757699 2.7594297 -0.41625497
3.0305951 2.8860364 -0.41625497
3.18542 3.0126426 -0.41625497
3.3402455 3.1392491 -0.41625497
3.4950705 3.2658556 -0.41625497
3.6498954 3.3924618 -0.41625497
3.8047206 3.5190685 -0.41625497
3.9595456 3.6456747 -0.41625497
4.1143708 3.7722812 -0.41625497
0.088917889 0.48051444 -0.41625497
0.088917889 0.48051444 -0.21625498
0.088917889 0.48051444 -0.016254975
0.088917889 0.48051444 0.18374504
0.088917889 0.48051444 0.38374504
0.088917889 0.48051444 0.583745
0.088917889 0.48051444 0.78374505
0.088917889 0.48051444 0.98374498
0.088917889 0.48051444 1.183745
0.088917889 0.48051444 1.383745
0.088917889 0.48051444 1.583745
0.088917889 0.48051444 1.7837451
0.088917889 0.48051444 1.9837451
0.088917889 0.48051444 2.1837449
0.088917889 0.48051444 2.383745
0.088917889 0.48051444 2.583745
0.088917889 0.48051444 2.7837451
0.088917889 0.48051444 2.9837451
0.088917889 0.48051444 3.1837449
0.088917889 0.48051444 3.383745
0.088917889 0.48051444 3.583745
0.088917889 0.48051444 3.7837448
0.088917889 0.48051444 3.9837451
0.088917889 0.48051444 4.1837449
0.088917889 0.48051444 4.3837452
0.088917889 0.48051444 4.583745
0.088917889 0.48051444 4.7837448
0.088917889 0.48051444 4.9837451
0.088917889 0.48051444 5.1837449
0.088917889 0.48051444 5.3837452
0.088917889 0.48051444 5.583745
0.088917889 0.48051444 5.7837448
0.088917889 0.48051444 5.9837451
0.088917889 0.48051444 6.1837449
0.088917889 0.48051444 6.3837452
0.088917889 0.48051444 6.583745
0.088917889 0.48051444 6.7837448
0.088917889 0.48051444 6.9837451
0.088917889 0.48051444 7.1837449
0.088917889 0.48051444 7.3837452
0.088917889 0.48051444 7.583745
0.088917889 0.48051444 7.7837448
0.088917889 0.48051444 7.9837446
0.088917889 0.48051444 8.1837454
0.088917889 0.48051444 8.3837452
-0.37555748 0.1006952 -0.41625497
-0.22073236 0.22730161 -0.41625497
-0.065907247 0.35390803 -0.41625497
0.088917889 0.48051444 -0.41625497
0.24374299 0.60712087 -0.41625497
0.39856809 0.73372728 -0.41625497
0.55339324 0.86033368 -0.41625497
0.70821834 0.98694009 -0.41625497
0.86304349 1.1135465 -0.41625497
1.0178685 1.2401528 -0.41625497
1.1726937 1.3667593 -0.41625497
1.3275188 1.4933658 -0.41625497
1.482344 1.6199722 -0.41625497
1.637169 1.7465785 -0.41625497
1.7919941 1.8731849 -0.41625497
1.9468193 1.9997914 -0.41625497
2.1016445 2.1263978 -0.41625497
2.2564695 2.2530043 -0.41625497
2.4112945 2.3796105 -0.41625497
2.5661197 2.506217 -0.41625497
2.7209449 2.6328235 -0.41625497
2.8757699 2.7594297 -0.41625497
3.0305951 2.8860364 -0.41625497
3.18542 3.0126426 -0.41625497
3.3402455 3.1392491 -0.41625497
3.4950705 3.2658556 -0.41625497
3.6498954 3.3924618 -0.41625497
3.8047206 3.5190685 -0.41625497
3.9595456 3.6456747 -0.41625497
4.1143708 3.7722812 -0.41625497
0.24374299 0.60712087 -0.41625497
0.24374299 0.60712087 -0.21625498
0.24374299 0.60712087 -0.016254975
0.24374299 0.60712087 0.18374504
0.24374299 0.60712087 0.38374504
0.24374299 0.60712087 0.583745
0.24374299 0.60712087 0.78374505
0.24374299 0.60712087 0.98374498
0.24374299 0.60712087 1.183745
0.24374299 0.60712087 1.383745
0.24374299 0.60712087 1.583745
0.24374299 0.60712087 1.7837451
0.24374299 0.60712087 1.9837451
0.24374299 0.60712087 2.1837449
0.24374299 0.60712087 2.383745
0.24374299 0.60712087 2.583745
0.24374299 0.60712087 2.7837451
0.24374299 0.60712087 2.9837451
0.24374299 0.60712087 3.1837449
0.24374299 0.60712087 3.383745
0.24374299 0.60712087 3.583745
0.24374299 0.60712087 3.7837448
0.24374299 0.60712087 3.9837451
0.24374299 0.60712087 4.1837449
0.24374299 0.60712087 4.3837452
0.24374299 0.60712087 4.583745
0.24374299 0.60712087 4.7837448
0.24374299 0.60712087 4.9837451
0.24374299 0.60712087 5.1837449
0.24374299 0.60712087 5.3837452
0.24374299 0.60712087 5.583745
0.24374299 0.60712087 5.7837448
0.24374299 0.60712087 5.9837451
0.24374299 0.60712087 6.1837449
0.24374299 0.60712087 6.3837452
0.24374299 0.60712087 6.583745
0.24374299 0.60712087 6.7837448
0.24374299 0.60712087 6.9837451
0.24374299 0.60712087 7.1837449
0.24374299 0.60712087 7.3837452
0.24374299 0.60712087 7.583745
0.24374299 0.60712087 7.7837448
0.24374299 0.60712087 7.9837446
0.24374299 0.60712087 8.1837454
0.24374299 0.60712087 8.3837452
-0.37555748 0.1006952 -0.41625497
-0.22073236 0.22730161 -0.41625497
-0.065907247 0.35390803 -0.41625497
0.088917889 0.48051444 -0.41625497
0.24374299 0.60712087 -0.41625497
0.39856809 0.73372728 -0.41625497
0.55339324 0.86033368 -0.41625497
0.70821834 0.98694009 -0.41625497
0.86304349 1.1135465 -0.41625497
1.0178685 1.2401528 -0.41625497
1.1726937 1.3667593 -0.41625497
1.3275188 1.4933658 -0.41625497
1.482344 1.6199722 -0.41625497
1.637169 1.7465785 -0.41625497
1.7919941 1.8731849 -0.41625497
1.9468193 1.9997914 -0.41625497
2.1016445 2.1263978 -0.41625497
2.2564695 2.2530043 -0.41625497
2.4112945 2.3796105 -0.41625497
2.5661197 2.506217 -0.41625497
2.7209449 2.6328235 -0.41625497
2.8757699 2.7594297 -0.41625497
3.0305951 2.8860364 -0.41625497
3.18542 3.0126426 -0.41625497
3.3402455 3.1392491 -0.41625497
3.4950705 3.2658556 -0.41625497
3.6498954 3.3924618 -0.41625497
3.8047206 3.5190685 -0.41625497
3.9595456 3.6456747 -0.41625497
4.1143708 3.7722812 -0.41625497
0.39856809 0.73372728 -0.41625497
0.39856809 0.73372728 -0.21625498
0.39856809 0.73372728 -0.016254975
0.39856809 0.73372728 0.18374504
0.39856809 0.73372728 0.38374504
0.39856809 0.73372728 0.583745
0.39856809 0.73372728 0.78374505
0.39856809 0.73372728 0.98374498
0.39856809 0.73372728 1.183745
0.39856809 0.73372728 1.383745
0.39856809 0.73372728 1.583745
0.39856809 0.73372728 1.7837451
0.39856809 0.73372728 1.9837451
0.39856809 0.73372728 2.1837449
0.39856809 0.73372728 2.383745
0.39856809 0.73372728 2.583745
0.39856809 0.73372728 2.7837451
0.39856809 0.73372728 2.9837451
0.39856809 0.73372728 3.1837449
0.39856809 0.73372728 3.383745
0.39856809 0.73372728 3.583745
0.39856809 0.73372728 3.7837448
0.39856809 0.73372728 3.9837451
0.39856809 0.73372728 4.1837449
0.39856809 0.73372728 4.3837452
0.39856809 0.73372728 4.583745
0.39856809 0.73372728 4.7837448
0.39856809 0.73372728 4.9837451
0.39856809 0.73372728 5.1837449
0.39856809 0.73372728 5.3837452
0.39856809 0.73372728 5.583745
0.39856809 0.73372728 5.7837448
0.39856809 0.73372728 5.9837451
0.39856809 0.73372728 6.1837449
0.39856809 0.73372728 6.3837452
0.39856809 0.73372728 6.583745
0.39856809 0.73372728 6.7837448
0.39856809 0.73372728 6.9837451
0.39856809 0.73372728 7.1837449
0.39856809 0.73372728 7.3837452
0.39856809 0.73372728 7.583745
0.39856809 0.73372728 7.7837448
0.39856809 0.73372728 7.9837446
0.39856809 0.73372728 8.1837454
0.39856809 0.73372728 8.3837452
-0.37555748 0.1006952 -0.41625497
-0.22073236 0.22730161 -0.41625497
-0.065907247 0.35390803 -0.41625497
0.088917889 0.48051444 -0.41625497
0.24374299 0.60712087 -0.41625497
0.39856809 0.73372728 -0.41625497
0.55339324 0.86033368 -0.41625497
0.70821834 0.98694009 -0.41625497
0.86304349 1.1135465 -0.41625497
1.0178685 1.2401528 -0.41625497
1.1726937 1.3667593 -0.41625497
1.3275188 1.4933658 -0.41625497
1.482344 1.6199722 -0.41625497
1.637169 1.7465785 -0.41625497
1.7919941 1.8731849 -0.41625497
1.9468193 1.9997914 -0.41625497
2.1016445 2.1263978 -0.41625497
2.2564695 2.2530043 -0.41625497
2.4112945 2.3796105 -0.41625497
2.5661197 2.506217 -0.41625497
2.7209449 2.6328235 -0.41625497
2.8757699 2.7594297 -0.41625497
3.0305951 2.8860364 -0.41625497
3.18542 3.0126426 -0.41625497
3.3402455 3.1392491 -0.41625497
3.4950705 3.2658556 -0.41625497
3.6498954 3.3924618 -0.41625497
3.8047206 3.5190685 -0.41625497
3.9595456 3.6456747 -0.41625497
4.1143708 3.7722812 -0.41625497
0.55339324 0.86033368 -0.41625497
0.55339324 0.86033368 -0.21625498
0.55339324 0.86033368 -0.016254975
0.55339324 0.86033368 0.18374504
0.55339324 0.86033368 0.38374504
0.55339324 0.86033368 0.583745
0.55339324 0.86033368 0.78374505
0.55339324 0.86033368 0.98374498
0.55339324 0.86033368 1.183745
0.55339324 0.86033368 1.383745
0.55339324 0.86033368 1.583745
0.55339324 0.86033368 1.7837451
0.55339324 0.86033368 1.9837451
0.55339324 0.86033368 2.1837449
0.55339324 0.86033368 2.383745
0.55339324 0.86033368 2.583745
0.55339324 0.86033368 2.7837451
0.55339324 0.86033368 2.9837451
0.55339324 0.86033368 3.1837449
0.55339324 0.86033368 3.383745
0.55339324 0.86033368 3.583745
0.55339324 0.86033368 3.7837448
0.55339324 0.86033368 3.9837451
0.55339324 0.86033368 4.1837449
0.55339324 0.86033368 4.3837452
0.55339324 0.86033368 4.583745
0.55339324 0.86033368 4.7837448
0.55339324 0.86033368 4.9837451
0.55339324 0.86033368 5.1837449
0.55339324 0.86033368 5.3837452
0.55339324 0.86033368 5.583745
0.55339324 0.86033368 5.7837448
0.55339324 0.86033368 5.9837451
0.55339324 0.86033368 6.1837449
0.55339324 0.86033368 6.3837452
0.55339324 0.86033368 6.583745
0.55339324 0.86033368 6.7837448
0.55339324 0.86033368 6.9837451
0.55339324 0.86033368 7.1837449
0.55339324 0.86033368 7.3837452
0.55339324 0.86033368 7.583745
0.55339324 0.86033368 7.7837448
0.55339324 0.86033368 7.9837446
0.55339324 0.86033368 8.1837454
0.55339324 0.86033368 8.3837452
-0.37555748 0.1006952 -0.41625497
-0.22073236 0.22730161 -0.41625497
-0.065907247 0.35390803 -0.41625497
0.088917889 0.48051444 -0.41625497
0.24374299 0.60712087 -0.41625497
0.39856809 0.73372728 -0.41625497
0.55339324 0.86033368 -0.41625497
0.70821834 0.98694009 -0.41625497
0.86304349 1.1135465 -0.41625497
1.0178685 1.2401528 -0.41625497
1.1726937 1.3667593 -0.41625497
1.3275188 1.4933658 -0.41625497
1.482344 1.6199722 -0.41625497
1.637169 1.7465785 -0.41625497
1.7919941 1.8731849 -0.41625497
1.9468193 1.9997914 -0.41625497
2.1016445 2.1263978 -0.41625497
2.2564695 2.2530043 -0.41625497
2.4112945 2.3796105 -0.41625497
2.5661197 2.506217 -0.41625497
2.7209449 2.6328235 -0.41625497
2.8757699 2.7594297 -0.41625497
3.0305951 2.8860364 -0.41625497
3.18542 3.0126426 -0.41625497
3.3402455 3.1392491 -0.41625497
3.4950705 3.2658556 -0.41625497
3.6498954 3.3924618 -0.41625497
3.8047206 3.5190685 -0.41625497
3.9595456 3.6456747 -0.41625497
4.1143708 3.7722812 -0.41625497
0.70821834 0.98694009 -0.41625497
0.70821834 0.98694009 -0.21625498
0.70821834 0.98694009 -0.016254975
0.70821834 0.98694009 0.18374504
0.70821834 0.98694009 0.38374504
0.70821834 0.98694009 0.583745
0.70821834 0.98694009 0.78374505
0.70821834 0.98694009 0.98374498
0.70821834 0.98694009 1.183745
0.70821834 0.98694009 1.383745
0.70821834 0.98694009 1.583745
0.70821834 0.98694009 1.7837451
0.70821834 0.98694009 1.9837451
0.70821834 0.98694009 2.1837449
0.70821834 0.98694009 2.383745
0.70821834 0.98694009 2.583745
0.70821834 0.98694009 2.7837451
0.70821834 0.98694009 2.9837451
0.70821834 0.98694009 3.1837449
0.70821834 0.98694009 3.383745
0.70821834 0.98694009 3.583745
0.70821834 0.98694009 3.7837448
0.70821834 0.98694009 3.9837451
0.70821834 0.98694009 4.1837449
0.70821834 0.98694009 4.3837452
0.70821834 0.98694009 4.583745
0.70821834 0.98694009 4.7837448
0.70821834 0.98694009 4.9837451
0.70821834 0.98694009 5.1837449
0.70821834 0.98694009 5.3837452
0.70821834 0.98694009 5.583745
0.70821834 0.98694009 5.7837448
0.70821834 0.98694009 5.9837451
0.70821834 0.98694009 6.1837449
0.70821834 0.98694009 6.3837452
0.70821834 0.98694009 6.583745
0.70821834 0.98694009 6.7837448
0.70821834 0.98694009 6.9837451
0.70821834 0.98694009 7.1837449
0.70821834 0.98694009 7.3837452
0.70821834 0.98694009 7.583745
0.70821834 0.98694009 7.7837448
0.70821834 0.98694009 7.9837446
0.70821834 0.98694009 8.1837454
0.70821834 0.98694009 8.3837452
-0.37555748 0.1006952 -0.41625497
-0.22073236 0.22730161 -0.41625497
-0.065907247 0.35390803 -0.41625497
0.088917889 0.48051444 -0.41625497
0.24374299 0.60712087 -0.41625497
0.39856809 0.73372728 -0.41625497
0.55339324 0.86033368 -0.41625497
0.70821834 0.98694009 -0.41625497
0.86304349 1.1135465 -0.41625497
1.0178685 1.2401528 -0.41625497
1.1726937 1.3667593 -0.41625497
1.3275188 1.4933658 -0.41625497
1.482344 1.6199722 -0.41625497
1.637169 1.7465785 -0.41625497
1.7919941 1.8731849 -0.41625497
1.9468193 1.9997914 -0.41625497
2.1016445 2.1263978 -0.41625497
2.2564695 2.2530043 -0.41625497
2.4112945 2.3796105 -0.41625497
2.5661197 2.506217 -0.41625497
2.7209449 2.6328235 -0.41625497
2.8757699 2.7594297 -0.41625497
3.0305951 2.8860364 -0.41625497
3.18542 3.0126426 -0.41625497
3.3402455 3.1392491 -0.41625497
3.4950705 3.2658556 -0.41625497
3.6498954 3.3924618 -0.41625497
3.8047206 3.5190685 -0.41625497
3.9595456 3.6456747 -0.41625497
4.1143708 3.7722812 -0.41625497
0.86304349 1.1135465 -0.41625497
0.86304349 1.1135465 -0.21625498
0.86304349 1.1135465 -0.016254975
0.86304349 1.1135465 0.18374504
0.86304349 1.1135465 0.38374504
0.86304349 1.1135465 0.583745
0.86304349 1.1135465 0.78374505
0.86304349 1.1135465 0.98374498
0.86304349 1.1135465 1.183745
0.86304349 1.1135465 1.383745
0.86304349 1.1135465 1.583745
0.86304349 1.1135465 1.7837451
0.86304349 1.1135465 1.9837451
0.86304349 1.1135465 2.1837449
0.86304349 1.1135465 2.383745
0.86304349 1.1135465 2.583745
0.86304349 1.1135465 2.7837451
0.86304349 1.1135465 2.9837451
0.86304349 1.1135465 3.1837449
0.86304349 1.1135465 3.383745
0.86304349 1.1135465 3.583745
0.86304349 1.1135465 3.7837448
0.86304349 1.1135465 3.9837451
0.86304349 1.1135465 4.1837449
0.86304349 1.1135465 4.3837452
0.86304349 1.1135465 4.583745
0.86304349 1.1135465 4.7837448
0.86304349 1.1135465 4.9837451
0.86304349 1.1135465 5.1837449
0.86304349 1.1135465 5.3837452
0.86304349 1.1135465 5.583745
0.86304349 1.1135465 5.7837448
0.86304349 1.1135465 5.9837451
0.86304349 1.1135465 6.1837449
0.86304349 1.1135465 6.3837452
0.86304349 1.1135465 6.583745
0.86304349 1.1135465 6.7837448
0.86304349 1.1135465 6.9837451
0.86304349 1.1135465 7.1837449
0.86304349 1.1135465 7.3837452
0.86304349 1.1135465 7.583745
0.86304349 1.1135465 7.7837448
0.86304349 1.1135465 7.9837446
0.86304349 1.1135465 8.1837454
0.86304349 1.1135465 8.3837452
-0.37555748 0.1006952 -0.41625497
-0.22073236 0.22730161 -0.41625497
-0.065907247 0.35390803 -0.41625497
0.088917889 0.48051444 -0.41625497
0.24374299 0.60712087 -0.41625497
0.39856809 0.73372728 -0.41625497
0.55339324 0.86033368 -0.41625497
0.70821834 0.98694009 -0.41625497
0.86304349 1.1135465 -0.41625497
1.0178685 1.2401528 -0.41625497
1.1726937 1.3667593 -0.41625497
1.3275188 1.4933658 -0.41625497
1.482344 1.6199722 -0.41625497
1.637169 1.7465785 -0.41625497
1.7919941 1.8731849 -0.41625497
1.9468193 1.9997914 -0.41625497
2.1016445 2.1263978 -0.41625497
2.2564695 2.2530043 -0.41625497
2.4112945 2.3796105 -0.41625497
2.5661197 2.506217 -0.41625497
2.7209449 2.6328235 -0.41625497
2.8757699 2.7594297 -0.41625497
3.0305951 2.8860364 -0.41625497
3.18542 3.0126426 -0.41625497
3.3402455 3.1392491 -0.41625497
3.4950705 3.2658556 -0.41625497
3.6498954 3.3924618 -0.41625497
3.8047206 3.5190685 -0.41625497
3.9595456 3.6456747 -0.41625497
4.1143708 3.7722812 -0.41625497
1.0178685 1.2401528 -0.41625497
1.0178685 1.2401528 -0.21625498
1.0178685 1.2401528 -0.016254975
1.0178685 1.2401528 0.18374504
1.0178685 1.2401528 0.38374504
1.0178685 1.2401528 0.583745
1.0178685 1.2401528 0.78374505
1.0178685 1.2401528 0.98374498
1.0178685 1.2401528 1.183745
1.0178685 1.2401528 1.383745
1.0178685 1.2401528 1.583745
1.0178685 1.2401528 1.7837451
1.0178685 1.2401528 1.9837451
1.0178685 1.2401528 2.1837449
1.0178685 1.2401528 2.383745
1.0178685 1.2401528 2.583745
1.0178685 1.2401528 2.7837451
1.0178685 1.2401528 2.9837451
1.0178685 1.2401528 3.1837449
1.0178685 1.2401528 3.383745
1.0178685 1.2401528 3.583745
1.0178685 1.2401528 3.7837448
1.0178685 1.2401528 3.9837451
1.0178685 1.2401528 4.1837449
1.0178685 1.2401528 4.3837452
1.0178685 1.2401528 4.583745
1.0178685 1.2401528 4.7837448
1.0178685 1.2401528 4.9837451
1.0178685 1.2401528 5.1837449
1.0178685 1.2401528 5.3837452
1.0178685 1.2401528 5.583745
1.0178685 1.2401528 5.7837448
1.0178685 1.2401528 5.9837451
1.0178685 1.2401528 6.1837449
1.0178685 1.2401528 6.3837452
1.0178685 1.2401528 6.583745
1.0178685 1.2401528 6.7837448
1.0178685 1.2401528 6.9837451
1.0178685 1.2401528 7.1837449
