# .PCD v0.7 - Point Cloud Data file format
VERSION 0.7
FIELDS x y z
SIZE 4 4 4
TYPE F F F
COUNT 1 1 1
WIDTH 1458
HEIGHT 1
VIEWPOINT 0 0 0 1 0 0 0
POINTS 1458
DATA ascii
0.38789174 0.46800354 3.9745359
0.38789174 0.46800354 4.1745358
0.38789174 0.46800354 4.374536
0.38789174 0.46800354 4.5745358
0.38789174 0.46800354 4.7745361
0.38789174 0.46800354 4.9745359
0.38789174 0.46800354 5.1745358
0.38789174 0.46800354 5.374536
0.38789174 0.46800354 5.5745358
0.38789174 0.46800354 5.7745361
0.38789174 0.46800354 5.9745359
0.38789174 0.46800354 6.1745358
0.38789174 0.46800354 6.374536
0.38789174 0.46800354 6.5745358
0.38789174 0.46800354 6.7745361
0.38789174 0.46800354 6.9745359
0.38789174 0.46800354 7.1745358
0.38789174 0.46800354 7.374536
0.38789174 0.46800354 7.5745358
0.38789174 0.46800354 7.7745361
0.38789174 0.46800354 7.9745359
0.38789174 0.46800354 8.1745358
0.38789174 0.46800354 8.3745356
0.38789174 0.46800354 8.5745363
0.38789174 0.46800354 8.7745361
0.34810981 0.069986708 -0.025464036
0.36800078 0.26899514 -0.025464036
0.38789174 0.46800354 -0.025464036
0.40778267 0.66701198 -0.025464036
0.42767364 0.86602038 -0.025464036
0.4475646 1.0650288 -0.025464036
0.46745557 1.2640373 -0.025464036
0.4873465 1.4630456 -0.025464036
0.50723743 1.6620541 -0.025464036
0.5271284 1.8610624 -0.025464036
0.54701936 2.060071 -0.025464036
0.56691033 2.2590795 -0.025464036
0.58680129 2.4580879 -0.025464036
0.60669225 2.6570961 -0.025464036
0.62658322 2.8561046 -0.025464036
0.40778267 0.66701198 -0.025464036
0.20877427 0.68690294 -0.025464036
0.0097658439 0.7067939 -0.025464036
-0.18924259 0.72668487 -0.025464036
-0.38825101 0.74657583 -0.025464036
-0.58725941 0.76646674 -0.025464036
-0.78626788 0.7863577 -0.025464036
-0.98527622 0.80624866 -0.025464036
-1.1842847 0.82613963 -0.025464036
-1.383293 0.84603059 -0.025464036
-1.5823015 0.86592156 -0.025464036
-1.78131 0.88581252 -0.025464036
-1.9803184 0.90570349 -0.025464036
-2.1793265 0.92559439 -0.025464036
-2.378335 0.94548535 -0.025464036
-2.5773435 0.96537632 -0.025464036
-2.7763519 0.98526728 -0.025464036
-2.9753604 1.0051582 -0.025464036
-3.1743686 1.0250492 -0.025464036
-3.3733771 1.0449401 -0.025464036
-3.5723855 1.0648311 -0.025464036
-3.7713938 1.084722 -0.025464036
-3.9704025 1.1046131 -0.025464036
-4.1694107 1.124504 -0.025464036
-4.3684196 1.144395 -0.025464036
-4.5674276 1.1642859 -0.025464036
-4.7664361 1.1841768 -0.025464036
-4.9654446 1.2040678 -0.025464036
-5.164453 1.2239587 -0.025464036
-5.3634615 1.2438498 -0.025464036
0.40778267 0.66701198 -0.025464036
0.40778267 0.66701198 0.17453597
0.40778267 0.66701198 0.37453598
0.40778267 0.66701198 0.57453597
0.40778267 0.66701198 0.77453595
0.40778267 0.66701198 0.97453594
0.40778267 0.66701198 1.174536
0.40778267 0.66701198 1.3745359
0.40778267 0.66701198 1.574536
0.40778267 0.66701198 1.7745359
0.40778267 0.66701198 1.9745359
0.40778267 0.66701198 2.174536
0.40778267 0.66701198 2.374536
0.40778267 0.66701198 2.5745358
0.40778267 0.66701198 2.7745359
0.40778267 0.66701198 2.9745359
0.40778267 0.66701198 3.174536
0.40778267 0.66701198 3.374536
0.40778267 0.66701198 3.5745358
0.40778267 0.66701198 3.7745359
0.40778267 0.66701198 3.9745359
0.40778267 0.66701198 4.1745358
0.40778267 0.66701198 4.374536
0.40778267 0.66701198 4.5745358
0.40778267 0.66701198 4.7745361
0.40778267 0.66701198 4.9745359
0.40778267 0.66701198 5.1745358
0.40778267 0.66701198 5.374536
0.40778267 0.66701198 5.5745358
0.40778267 0.66701198 5.7745361
0.40778267 0.66701198 5.9745359
0.40778267 0.66701198 6.1745358
0.40778267 0.66701198 6.374536
0.40778267 0.66701198 6.5745358
0.40778267 0.66701198 6.7745361
0.40778267 0.66701198 6.9745359
0.40778267 0.66701198 7.1745358
0.40778267 0.66701198 7.374536
0.40778267 0.66701198 7.5745358
0.40778267 0.66701198 7.7745361
0.40778267 0.66701198 7.9745359
0.40778267 0.66701198 8.1745358
0.40778267 0.66701198 8.3745356
0.40778267 0.66701198 8.5745363
0.40778267 0.66701198 8.7745361
0.34810981 0.069986708 -0.025464036
0.36800078 0.26899514 -0.025464036
0.38789174 0.46800354 -0.025464036
0.40778267 0.66701198 -0.025464036
0.42767364 0.86602038 -0.025464036
0.4475646 1.0650288 -0.025464036
0.46745557 1.2640373 -0.025464036
0.4873465 1.4630456 -0.025464036
0.50723743 1.6620541 -0.025464036
0.5271284 1.8610624 -0.025464036
0.54701936 2.060071 -0.025464036
0.56691033 2.2590795 -0.025464036
0.58680129 2.4580879 -0.025464036
0.60669225 2.6570961 -0.025464036
0.62658322 2.8561046 -0.025464036
0.42767364 0.86602038 -0.025464036
0.22866522 0.88591135 -0.025464036
0.029656798 0.90580231 -0.025464036
-0.16935164 0.92569327 -0.025464036
-0.36836004 0.94558424 -0.025464036
-0.56736845 0.96547514 -0.025464036
-0.76637691 0.98536611 -0.025464036
-0.96538526 1.0052571 -0.025464036
-1.1643937 1.025148 -0.025464036
-1.363402 1.0450389 -0.025464036
-1.5624105 1.06493 -0.025464036
-1.7614189 1.0848209 -0.025464036
-1.9604274 1.1047119 -0.025464036
-2.1594357 1.1246028 -0.025464036
-2.3584442 1.1444938 -0.025464036
-2.5574527 1.1643847 -0.025464036
-2.7564611 1.1842756 -0.025464036
-2.9554696 1.2041667 -0.025464036
-3.1544778 1.2240576 -0.025464036
-3.3534863 1.2439486 -0.025464036
-3.5524948 1.2638395 -0.025464036
-3.751503 1.2837304 -0.025464036
-3.9505117 1.3036214 -0.025464036
-4.1495199 1.3235123 -0.025464036
-4.3485284 1.3434033 -0.025464036
-4.5475368 1.3632942 -0.025464036
-4.7465448 1.3831853 -0.025464036
-4.9455538 1.4030762 -0.025464036
-5.1445618 1.4229672 -0.025464036
-5.3435707 1.4428581 -0.025464036
0.42767364 0.86602038 -0.025464036
0.42767364 0.86602038 0.17453597
0.42767364 0.86602038 0.37453598
0.42767364 0.86602038 0.57453597
0.42767364 0.86602038 0.77453595
0.42767364 0.86602038 0.97453594
0.42767364 0.86602038 1.174536
0.42767364 0.86602038 1.3745359
0.42767364 0.86602038 1.574536
0.42767364 0.86602038 1.7745359
0.42767364 0.86602038 1.9745359
0.42767364 0.86602038 2.174536
0.42767364 0.86602038 2.374536
0.42767364 0.86602038 2.5745358
0.42767364 0.86602038 2.7745359
0.42767364 0.86602038 2.9745359
0.42767364 0.86602038 3.174536
0.42767364 0.86602038 3.374536
0.42767364 0.86602038 3.5745358
0.42767364 0.86602038 3.7745359
0.42767364 0.86602038 3.9745359
0.42767364 0.86602038 4.1745358
0.42767364 0.86602038 4.374536
0.42767364 0.86602038 4.5745358
0.42767364 0.86602038 4.7745361
0.42767364 0.86602038 4.9745359
0.42767364 0.86602038 5.1745358
0.42767364 0.86602038 5.374536
0.42767364 0.86602038 5.5745358
0.42767364 0.86602038 5.7745361
0.42767364 0.86602038 5.9745359
0.42767364 0.86602038 6.1745358
0.42767364 0.86602038 6.374536
0.42767364 0.86602038 6.5745358
0.42767364 0.86602038 6.7745361
0.42767364 0.86602038 6.9745359
0.42767364 0.86602038 7.1745358
0.42767364 0.86602038 7.374536
0.42767364 0.86602038 7.5745358
0.42767364 0.86602038 7.7745361
0.42767364 0.86602038 7.9745359
0.42767364 0.86602038 8.1745358
0.42767364 0.86602038 8.3745356
0.42767364 0.86602038 8.5745363
0.42767364 0.86602038 8.7745361
0.34810981 0.069986708 -0.025464036
0.36800078 0.26899514 -0.025464036
0.38789174 0.46800354 -0.025464036
0.40778267 0.66701198 -0.025464036
0.42767364 0.86602038 -0.025464036
0.4475646 1.0650288 -0.025464036
0.46745557 1.2640373 -0.025464036
0.4873465 1.4630456 -0.025464036
0.50723743 1.6620541 -0.025464036
0.5271284 1.8610624 -0.025464036
0.54701936 2.060071 -0.025464036
0.56691033 2.2590795 -0.025464036
0.58680129 2.4580879 -0.025464036
0.60669225 2.6570961 -0.025464036
0.62658322 2.8561046 -0.025464036
0.4475646 1.0650288 -0.025464036
0.24855617 1.0849197 -0.025464036
0.049547754 1.1048107 -0.025464036
-0.14946069 1.1247016 -0.025464036
-0.34846908 1.1445926 -0.025464036
-0.54747748 1.1644835 -0.025464036
-0.74648595 1.1843746 -0.025464036
-0.94549429 1.2042655 -0.025464036
-1.1445028 1.2241565 -0.025464036
-1.3435111 1.2440474 -0.025464036
-1.5425196 1.2639383 -0.025464036
-1.741528 1.2838293 -0.025464036
-1.9405365 1.3037202 -0.025464036
-2.1395447 1.3236113 -0.025464036
-2.3385532 1.3435022 -0.025464036
-2.5375617 1.3633932 -0.025464036
-2.7365701 1.3832841 -0.025464036
-2.9355786 1.403175 -0.025464036
-3.1345868 1.423066 -0.025464036
-3.3335953 1.4429569 -0.025464036
-3.5326037 1.4628479 -0.025464036
-3.731612 1.4827389 -0.025464036
-3.9306207 1.5026299 -0.025464036
-4.1296287 1.5225208 -0.025464036
-4.3286376 1.5424118 -0.025464036
-4.5276456 1.5623027 -0.025464036
-4.7266541 1.5821936 -0.025464036
-4.9256625 1.6020846 -0.025464036
-5.124671 1.6219755 -0.025464036
-5.3236794 1.6418666 -0.025464036
0.4475646 1.0650288 -0.025464036
0.4475646 1.0650288 0.17453597
0.4475646 1.0650288 0.37453598
0.4475646 1.0650288 0.57453597
0.4475646 1.0650288 0.77453595
0.4475646 1.0650288 0.97453594
0.4475646 1.0650288 1.174536
0.4475646 1.0650288 1.3745359
0.4475646 1.0650288 1.574536
0.4475646 1.0650288 1.7745359
0.4475646 1.0650288 1.9745359
0.4475646 1.0650288 2.174536
0.4475646 1.0650288 2.374536
0.4475646 1.0650288 2.5745358
0.4475646 1.0650288 2.7745359
0.4475646 1.0650288 2.9745359
0.4475646 1.0650288 3.174536
0.4475646 1.0650288 3.374536
0.4475646 1.0650288 3.5745358
0.4475646 1.0650288 3.7745359
0.4475646 1.0650288 3.9745359
0.4475646 1.0650288 4.1745358
0.4475646 1.0650288 4.374536
0.4475646 1.0650288 4.5745358
0.4475646 1.0650288 4.7745361
0.4475646 1.0650288 4.9745359
0.4475646 1.0650288 5.1745358
0.4475646 1.0650288 5.374536
0.4475646 1.0650288 5.5745358
0.4475646 1.0650288 5.7745361
0.4475646 1.0650288 5.9745359
0.4475646 1.0650288 6.1745358
0.4475646 1.0650288 6.374536
0.4475646 1.0650288 6.5745358
0.4475646 1.0650288 6.7745361
0.4475646 1.0650288 6.9745359
0.4475646 1.0650288 7.1745358
0.4475646 1.0650288 7.374536
0.4475646 1.0650288 7.5745358
0.4475646 1.0650288 7.7745361
0.4475646 1.0650288 7.9745359
0.4475646 1.0650288 8.1745358
0.4475646 1.0650288 8.3745356
0.4475646 1.0650288 8.5745363
0.4475646 1.0650288 8.7745361
0.34810981 0.069986708 -0.025464036
0.36800078 0.26899514 -0.025464036
0.38789174 0.46800354 -0.025464036
0.40778267 0.66701198 -0.025464036
0.42767364 0.86602038 -0.025464036
0.4475646 1.0650288 -0.025464036
0.46745557 1.2640373 -0.025464036
0.4873465 1.4630456 -0.025464036
0.50723743 1.6620541 -0.025464036
0.5271284 1.8610624 -0.025464036
0.54701936 2.060071 -0.025464036
0.56691033 2.2590795 -0.025464036
0.58680129 2.4580879 -0.025464036
0.60669225 2.6570961 -0.025464036
0.62658322 2.8561046 -0.025464036
0.46745557 1.2640373 -0.025464036
0.26844713 1.2839282 -0.025464036
0.069438711 1.3038192 -0.025464036
-0.12956972 1.3237101 -0.025464036
-0.32857811 1.3436011 -0.025464036
-0.52758652 1.363492 -0.025464036
-0.72659498 1.383383 -0.025464036
-0.92560333 1.4032739 -0.025464036
-1.1246119 1.423165 -0.025464036
-1.3236202 1.4430559 -0.025464036
-1.5226287 1.4629468 -0.025464036
-1.7216371 1.4828378 -0.025464036
-1.9206456 1.5027287 -0.025464036
-2.1196537 1.5226197 -0.025464036
-2.3186622 1.5425106 -0.025464036
-2.5176706 1.5624015 -0.025464036
-2.7166791 1.5822926 -0.025464036
-2.9156876 1.6021835 -0.025464036
-3.1146958 1.6220745 -0.025464036
-3.3137043 1.6419654 -0.025464036
-3.5127127 1.6618564 -0.025464036
-3.7117209 1.6817473 -0.025464036
-3.9107296 1.7016383 -0.025464036
-4.1097379 1.7215292 -0.025464036
-4.3087468 1.7414203 -0.025464036
-4.5077548 1.7613112 -0.025464036
-4.7067633 1.7812021 -0.025464036
-4.9057717 1.8010931 -0.025464036
-5.1047802 1.820984 -0.025464036
-5.3037887 1.840875 -0.025464036
0.46745557 1.2640373 -0.025464036
0.46745557 1.2640373 0.17453597
0.46745557 1.2640373 0.37453598
0.46745557 1.2640373 0.57453597
0.46745557 1.2640373 0.77453595
0.46745557 1.2640373 0.97453594
0.46745557 1.2640373 1.174536
0.46745557 1.2640373 1.3745359
0.46745557 1.2640373 1.574536
0.46745557 1.2640373 1.7745359
0.46745557 1.2640373 1.9745359
0.46745557 1.2640373 2.174536
0.46745557 1.2640373 2.374536
0.46745557 1.2640373 2.5745358
0.46745557 1.2640373 2.7745359
0.46745557 1.2640373 2.9745359
0.46745557 1.2640373 3.174536
0.46745557 1.2640373 3.374536
0.46745557 1.2640373 3.5745358
0.46745557 1.2640373 3.7745359
0.46745557 1.2640373 3.9745359
0.46745557 1.2640373 4.1745358
0.46745557 1.2640373 4.374536
0.46745557 1.2640373 4.5745358
0.46745557 1.2640373 4.7745361
0.46745557 1.2640373 4.9745359
0.46745557 1.2640373 5.1745358
0.46745557 1.2640373 5.374536
0.46745557 1.2640373 5.5745358
0.46745557 1.2640373 5.7745361
0.46745557 1.2640373 5.9745359
0.46745557 1.2640373 6.1745358
0.46745557 1.2640373 6.374536
0.46745557 1.2640373 6.5745358
0.46745557 1.2640373 6.7745361
0.46745557 1.2640373 6.9745359
0.46745557 1.2640373 7.1745358
0.46745557 1.2640373 7.374536
0.46745557 1.2640373 7.5745358
0.46745557 1.2640373 7.7745361
0.46745557 1.2640373 7.9745359
0.46745557 1.2640373 8.1745358
0.46745557 1.2640373 8.3745356
0.46745557 1.2640373 8.5745363
0.46745557 1.2640373 8.7745361
0.34810981 0.069986708 -0.025464036
0.36800078 0.26899514 -0.025464036
0.38789174 0.46800354 -0.025464036
0.40778267 0.66701198 -0.025464036
0.42767364 0.86602038 -0.025464036
0.4475646 1.0650288 -0.025464036
0.46745557 1.2640373 -0.025464036
0.4873465 1.4630456 -0.025464036
0.50723743 1.6620541 -0.025464036
0.5271284 1.8610624 -0.025464036
0.54701936 2.060071 -0.025464036
0.56691033 2.2590795 -0.025464036
0.58680129 2.4580879 -0.025464036
0.60669225 2.6570961 -0.025464036
0.62658322 2.8561046 -0.025464036
0.4873465 1.4630456 -0.025464036
0.28833809 1.4829365 -0.025464036
0.08932966 1.5028275 -0.025464036
-0.10967878 1.5227184 -0.025464036
-0.30868718 1.5426095 -0.025464036
-0.50769556 1.5625004 -0.025464036
-0.70670402 1.5823914 -0.025464036
-0.90571237 1.6022823 -0.025464036
-1.1047208 1.6221733 -0.025464036
-1.3037292 1.6420642 -0.025464036
-1.5027376 1.6619551 -0.025464036
-1.7017461 1.6818461 -0.025464036
-1.9007546 1.701737 -0.025464036
-2.0997629 1.7216281 -0.025464036
-2.2987714 1.741519 -0.025464036
-2.4977798 1.7614099 -0.025464036
-2.6967883 1.7813009 -0.025464036
-2.8957968 1.8011918 -0.025464036
-3.094805 1.8210828 -0.025464036
-3.2938135 1.8409737 -0.025464036
-3.4928219 1.8608648 -0.025464036
-3.6918302 1.8807557 -0.025464036
-3.8908389 1.9006467 -0.025464036
-4.0898471 1.9205376 -0.025464036
-4.2888556 1.9404286 -0.025464036
-4.487864 1.9603195 -0.025464036
-4.686872 1.9802104 -0.025464036
-4.8858809 2.0001013 -0.025464036
-5.0848889 2.0199924 -0.025464036
-5.2838979 2.0398834 -0.025464036
0.4873465 1.4630456 -0.025464036
0.4873465 1.4630456 0.17453597
0.4873465 1.4630456 0.37453598
0.4873465 1.4630456 0.57453597
0.4873465 1.4630456 0.77453595
0.4873465 1.4630456 0.97453594
0.4873465 1.4630456 1.174536
0.4873465 1.4630456 1.3745359
0.4873465 1.4630456 1.574536
0.4873465 1.4630456 1.7745359
0.4873465 1.4630456 1.9745359
0.4873465 1.4630456 2.174536
0.4873465 1.4630456 2.374536
0.4873465 1.4630456 2.5745358
0.4873465 1.4630456 2.7745359
0.4873465 1.4630456 2.9745359
0.4873465 1.4630456 3.174536
0.4873465 1.4630456 3.374536
0.4873465 1.4630456 3.5745358
0.4873465 1.4630456 3.7745359
0.4873465 1.4630456 3.9745359
0.4873465 1.4630456 4.1745358
0.4873465 1.4630456 4.374536
0.4873465 1.4630456 4.5745358
0.4873465 1.4630456 4.7745361
0.4873465 1.4630456 4.9745359
0.4873465 1.4630456 5.1745358
0.4873465 1.4630456 5.374536
0.4873465 1.4630456 5.5745358
0.4873465 1.4630456 5.7745361
0.4873465 1.4630456 5.9745359
0.4873465 1.4630456 6.1745358
0.4873465 1.4630456 6.374536
0.4873465 1.4630456 6.5745358
0.4873465 1.4630456 6.7745361
0.4873465 1.4630456 6.9745359
0.4873465 1.4630456 7.1745358
0.4873465 1.4630456 7.374536
0.4873465 1.4630456 7.5745358
0.4873465 1.4630456 7.7745361
0.4873465 1.4630456 7.9745359
0.4873465 1.4630456 8.1745358
0.4873465 1.4630456 8.3745356
0.4873465 1.4630456 8.5745363
0.4873465 1.4630456 8.7745361
0.34810981 0.069986708 -0.025464036
0.36800078 0.26899514 -0.025464036
0.38789174 0.46800354 -0.025464036
0.40778267 0.66701198 -0.025464036
0.42767364 0.86602038 -0.025464036
0.4475646 1.0650288 -0.025464036
0.46745557 1.2640373 -0.025464036
0.4873465 1.4630456 -0.025464036
0.50723743 1.6620541 -0.025464036
0.5271284 1.8610624 -0.025464036
0.54701936 2.060071 -0.025464036
0.56691033 2.2590795 -0.025464036
0.58680129 2.4580879 -0.025464036
0.60669225 2.6570961 -0.025464036
0.62658322 2.8561046 -0.025464036
0.50723743 1.6620541 -0.025464036
0.30822903 1.681945 -0.025464036
0.10922062 1.701836 -0.025464036
-0.089787811 1.7217269 -0.025464036
-0.28879622 1.7416179 -0.025464036
-0.48780462 1.7615088 -0.025464036
-0.68681306 1.7813998 -0.025464036
-0.8858214 1.8012908 -0.025464036
-1.0848299 1.8211817 -0.025464036
-1.2838383 1.8410727 -0.025464036
-1.4828467 1.8609636 -0.025464036
-1.6818552 1.8808546 -0.025464036
-1.8808637 1.9007455 -0.025464036
-2.0798719 1.9206365 -0.025464036
-2.2788804 1.9405274 -0.025464036
-2.4778888 1.9604183 -0.025464036
-2.6768973 1.9803094 -0.025464036
-2.8759058 2.0002003 -0.025464036
-3.074914 2.0200913 -0.025464036
-3.2739224 2.0399823 -0.025464036
-3.4729309 2.0598731 -0.025464036
-3.6719391 2.0797641 -0.025464036
-3.8709478 2.0996552 -0.025464036
-4.0699558 2.1195459 -0.025464036
-4.2689648 2.139437 -0.025464036
-4.4679728 2.159328 -0.025464036
-4.6669812 2.179219 -0.025464036
-4.8659897 2.1991098 -0.025464036
-5.0649981 2.2190008 -0.025464036
-5.2640066 2.2388918 -0.025464036
0.50723743 1.6620541 -0.025464036
0.50723743 1.6620541 0.17453597
0.50723743 1.6620541 0.37453598
0.50723743 1.6620541 0.57453597
0.50723743 1.6620541 0.77453595
0.50723743 1.6620541 0.97453594
0.50723743 1.6620541 1.174536
0.50723743 1.6620541 1.3745359
0.50723743 1.6620541 1.574536
0.50723743 1.6620541 1.7745359
0.50723743 1.6620541 1.9745359
0.50723743 1.6620541 2.174536
0.50723743 1.6620541 2.374536
0.50723743 1.6620541 2.5745358
0.50723743 1.6620541 2.7745359
0.50723743 1.6620541 2.9745359
0.50723743 1.6620541 3.174536
0.50723743 1.6620541 3.374536
0.50723743 1.6620541 3.5745358
0.50723743 1.6620541 3.7745359
0.50723743 1.6620541 3.9745359
0.50723743 1.6620541 4.1745358
0.50723743 1.6620541 4.374536
0.50723743 1.6620541 4.5745358
0.50723743 1.6620541 4.7745361
0.50723743 1.6620541 4.9745359
0.50723743 1.6620541 5.1745358
0.50723743 1.6620541 5.374536
0.50723743 1.6620541 5.5745358
0.50723743 1.6620541 5.7745361
0.50723743 1.6620541 5.9745359
0.50723743 1.6620541 6.1745358
0.50723743 1.6620541 6.374536
0.50723743 1.6620541 6.5745358
0.50723743 1.6620541 6.7745361
0.50723743 1.6620541 6.9745359
0.50723743 1.6620541 7.1745358
0.50723743 1.6620541 7.374536
0.50723743 1.6620541 7.5745358
0.50723743 1.6620541 7.7745361
0.50723743 1.6620541 7.9745359
0.50723743 1.6620541 8.1745358
0.50723743 1.6620541 8.3745356
0.50723743 1.6620541 8.5745363
0.50723743 1.6620541 8.7745361
0.34810981 0.069986708 -0.025464036
0.36800078 0.26899514 -0.025464036
0.38789174 0.46800354 -0.025464036
0.40778267 0.66701198 -0.025464036
0.42767364 0.86602038 -0.025464036
0.4475646 1.0650288 -0.025464036
0.46745557 1.2640373 -0.025464036
0.4873465 1.4630456 -0.025464036
0.50723743 1.6620541 -0.025464036
0.5271284 1.8610624 -0.025464036
0.54701936 2.060071 -0.025464036
0.56691033 2.2590795 -0.025464036
0.58680129 2.4580879 -0.025464036
0.60669225 2.6570961 -0.025464036
0.62658322 2.8561046 -0.025464036
0.5271284 1.8610624 -0.025464036
0.32811999 1.8809533 -0.025464036
0.12911157 1.9008443 -0.025464036
-0.069896862 1.9207352 -0.025464036
-0.26890528 1.9406263 -0.025464036
-0.46791369 1.9605172 -0.025464036
-0.66692215 1.9804082 -0.025464036
-0.8659305 2.0002992 -0.025464036
-1.0649389 2.02019 -0.025464036
-1.2639472 2.040081 -0.025464036
-1.4629557 2.059972 -0.025464036
-1.6619642 2.0798628 -0.025464036
-1.8609726 2.0997539 -0.025464036
-2.0599809 2.1196449 -0.025464036
-2.2589893 2.1395359 -0.025464036
-2.4579978 2.1594267 -0.025464036
-2.6570063 2.1793177 -0.025464036
-2.8560147 2.1992087 -0.025464036
-3.055023 2.2190995 -0.025464036
-3.2540314 2.2389905 -0.025464036
-3.4530399 2.2588816 -0.025464036
-3.6520481 2.2787724 -0.025464036
-3.8510568 2.2986634 -0.025464036
-4.050065 2.3185544 -0.025464036
-4.249074 2.3384454 -0.025464036
-4.448082 2.3583362 -0.025464036
-4.6470904 2.3782272 -0.025464036
-4.8460989 2.3981183 -0.025464036
-5.0451074 2.4180093 -0.025464036
-5.2441158 2.4379001 -0.025464036
0.5271284 1.8610624 -0.025464036
0.5271284 1.8610624 0.17453597
0.5271284 1.8610624 0.37453598
0.5271284 1.8610624 0.57453597
0.5271284 1.8610624 0.77453595
0.5271284 1.8610624 0.97453594
0.5271284 1.8610624 1.174536
0.5271284 1.8610624 1.3745359
0.5271284 1.8610624 1.574536
0.5271284 1.8610624 1.7745359
0.5271284 1.8610624 1.9745359
0.5271284 1.8610624 2.174536
0.5271284 1.8610624 2.374536
0.5271284 1.8610624 2.5745358
0.5271284 1.8610624 2.7745359
0.5271284 1.8610624 2.9745359
0.5271284 1.8610624 3.174536
0.5271284 1.8610624 3.374536
0.5271284 1.8610624 3.5745358
0.5271284 1.8610624 3.7745359
0.5271284 1.8610624 3.9745359
0.5271284 1.8610624 4.1745358
0.5271284 1.8610624 4.374536
0.5271284 1.8610624 4.5745358
0.5271284 1.8610624 4.7745361
0.5271284 1.8610624 4.9745359
0.5271284 1.8610624 5.1745358
0.5271284 1.8610624 5.374536
0.5271284 1.8610624 5.5745358
0.5271284 1.8610624 5.7745361
0.5271284 1.8610624 5.9745359
0.5271284 1.8610624 6.1745358
0.5271284 1.8610624 6.374536
0.5271284 1.8610624 6.5745358
0.5271284 1.8610624 6.7745361
0.5271284 1.8610624 6.9745359
0.5271284 1.8610624 7.1745358
0.5271284 1.8610624 7.374536
0.5271284 1.8610624 7.5745358
0.5271284 1.8610624 7.7745361
0.5271284 1.8610624 7.9745359
0.5271284 1.8610624 8.1745358
0.5271284 1.8610624 8.3745356
0.5271284 1.8610624 8.5745363
0.5271284 1.8610624 8.7745361
0.34810981 0.069986708 -0.025464036
0.36800078 0.26899514 -0.025464036
0.38789174 0.46800354 -0.025464036
0.40778267 0.66701198 -0.025464036
0.42767364 0.86602038 -0.025464036
0.4475646 1.0650288 -0.025464036
0.46745557 1.2640373 -0.025464036
0.4873465 1.4630456 -0.025464036
0.50723743 1.6620541 -0.025464036
0.5271284 1.8610624 -0.025464036
0.54701936 2.060071 -0.025464036
0.56691033 2.2590795 -0.025464036
0.58680129 2.4580879 -0.025464036
0.60669225 2.6570961 -0.025464036
0.62658322 2.8561046 -0.025464036
0.54701936 2.060071 -0.025464036
0.34801096 2.0799618 -0.025464036
0.14900254 2.0998528 -0.025464036
-0.050005902 2.1197438 -0.025464036
-0.2490143 2.1396346 -0.025464036
-0.44802272 2.1595256 -0.025464036
-0.64703119 2.1794167 -0.025464036
-0.84603953 2.1993077 -0.025464036
-1.045048 2.2191985 -0.025464036
-1.2440563 2.2390895 -0.025464036
-1.4430648 2.2589805 -0.025464036
-1.6420733 2.2788713 -0.025464036
-1.8410817 2.2987623 -0.025464036
-2.0400898 2.3186533 -0.025464036
-2.2390983 2.3385444 -0.025464036
-2.4381068 2.3584352 -0.025464036
-2.6371152 2.3783262 -0.025464036
-2.8361237 2.3982172 -0.025464036
-3.0351319 2.418108 -0.025464036
-3.2341404 2.437999 -0.025464036
-3.4331489 2.45789 -0.025464036
-3.6321571 2.4777808 -0.025464036
-3.8311658 2.4976718 -0.025464036
-4.0301743 2.5175629 -0.025464036
-4.2291827 2.5374539 -0.025464036
-4.4281912 2.5573447 -0.025464036
-4.6271992 2.5772357 -0.025464036
-4.8262081 2.5971267 -0.025464036
-5.0252161 2.6170177 -0.025464036
-5.224225 2.6369085 -0.025464036
0.54701936 2.060071 -0.025464036
0.54701936 2.060071 0.17453597
0.54701936 2.060071 0.37453598
0.54701936 2.060071 0.57453597
0.54701936 2.060071 0.77453595
0.54701936 2.060071 0.97453594
0.54701936 2.060071 1.174536
0.54701936 2.060071 1.3745359
0.54701936 2.060071 1.574536
0.54701936 2.060071 1.7745359
0.54701936 2.060071 1.9745359
0.54701936 2.060071 2.174536
0.54701936 2.060071 2.374536
0.54701936 2.060071 2.5745358
0.54701936 2.060071 2.7745359
0.54701936 2.060071 2.9745359
0.54701936 2.060071 3.174536
0.54701936 2.060071 3.374536
0.54701936 2.060071 3.5745358
0.54701936 2.060071 3.7745359
0.54701936 2.060071 3.9745359
0.54701936 2.060071 4.1745358
0.54701936 2.060071 4.374536
0.54701936 2.060071 4.5745358
0.54701936 2.060071 4.7745361
0.54701936 2.060071 4.9745359
0.54701936 2.060071 5.1745358
0.54701936 2.060071 5.374536
0.54701936 2.060071 5.5745358
0.54701936 2.060071 5.7745361
0.54701936 2.060071 5.9745359
0.54701936 2.060071 6.1745358
0.54701936 2.060071 6.374536
0.54701936 2.060071 6.5745358
0.54701936 2.060071 6.7745361
0.54701936 2.060071 6.9745359
0.54701936 2.060071 7.1745358
0.54701936 2.060071 7.374536
0.54701936 2.060071 7.5745358
0.54701936 2.060071 7.7745361
0.54701936 2.060071 7.9745359
0.54701936 2.060071 8.1745358
0.54701936 2.060071 8.3745356
0.54701936 2.060071 8.5745363
0.54701936 2.060071 8.7745361
0.34810981 0.069986708 -0.025464036
0.36800078 0.26899514 -0.025464036
0.38789174 0.46800354 -0.025464036
0.40778267 0.66701198 -0.025464036
0.42767364 0.86602038 -0.025464036
0.4475646 1.0650288 -0.025464036
0.46745557 1.2640373 -0.025464036
0.4873465 1.4630456 -0.025464036
0.50723743 1.6620541 -0.025464036
0.5271284 1.8610624 -0.025464036
0.54701936 2.060071 -0.025464036
0.56691033 2.2590795 -0.025464036
0.58680129 2.4580879 -0.025464036
0.60669225 2.6570961 -0.025464036
0.62658322 2.8561046 -0.025464036
0.56691033 2.2590795 -0.025464036
0.36790192 2.2789702 -0.025464036
0.16889349 2.2988613 -0.025464036
-0.030114943 2.3187523 -0.025464036
-0.22912335 2.3386431 -0.025464036
-0.42813176 2.3585341 -0.025464036
-0.62714022 2.3784251 -0.025464036
-0.82614857 2.3983161 -0.025464036
-1.025157 2.4182069 -0.025464036
-1.2241653 2.438098 -0.025464036
-1.4231738 2.457989 -0.025464036
-1.6221823 2.4778798 -0.025464036
-1.8211907 2.4977708 -0.025464036
-2.0201991 2.5176618 -0.025464036
-2.2192075 2.5375528 -0.025464036
-2.418216 2.5574436 -0.025464036
-2.6172245 2.5773346 -0.025464036
-2.8162329 2.5972257 -0.025464036
-3.0152411 2.6171165 -0.025464036
-3.2142496 2.6370075 -0.025464036
-3.4132581 2.6568985 -0.025464036
-3.6122663 2.6767893 -0.025464036
-3.811275 2.6966803 -0.025464036
-4.010283 2.7165713 -0.025464036
-4.2092919 2.7364624 -0.025464036
-4.4082999 2.7563531 -0.025464036
-4.6073084 2.7762442 -0.025464036
-4.8063169 2.7961352 -0.025464036
-5.0053253 2.816026 -0.025464036
-5.2043338 2.835917 -0.025464036
0.56691033 2.2590795 -0.025464036
0.56691033 2.2590795 0.17453597
0.56691033 2.2590795 0.37453598
0.56691033 2.2590795 0.57453597
0.56691033 2.2590795 0.77453595
0.56691033 2.2590795 0.97453594
0.56691033 2.2590795 1.174536
0.56691033 2.2590795 1.3745359
0.56691033 2.2590795 1.574536
0.56691033 2.2590795 1.7745359
0.56691033 2.2590795 1.9745359
0.56691033 2.2590795 2.174536
0.56691033 2.2590795 2.374536
0.56691033 2.2590795 2.5745358
0.56691033 2.2590795 2.7745359
0.56691033 2.2590795 2.9745359
0.56691033 2.2590795 3.174536
0.56691033 2.2590795 3.374536
0.56691033 2.2590795 3.5745358
0.56691033 2.2590795 3.7745359
0.56691033 2.2590795 3.9745359
0.56691033 2.2590795 4.1745358
0.56691033 2.2590795 4.374536
0.56691033 2.2590795 4.5745358
0.56691033 2.2590795 4.7745361
0.56691033 2.2590795 4.9745359
0.56691033 2.2590795 5.1745358
0.56691033 2.2590795 5.374536
0.56691033 2.2590795 5.5745358
0.56691033 2.2590795 5.7745361
0.56691033 2.2590795 5.9745359
0.56691033 2.2590795 6.1745358
0.56691033 2.2590795 6.374536
0.56691033 2.2590795 6.5745358
0.56691033 2.2590795 6.7745361
0.56691033 2.2590795 6.9745359
0.56691033 2.2590795 7.1745358
0.56691033 2.2590795 7.374536
0.56691033 2.2590795 7.5745358
0.56691033 2.2590795 7.7745361
0.56691033 2.2590795 7.9745359
0.56691033 2.2590795 8.1745358
0.56691033 2.2590795 8.3745356
0.56691033 2.2590795 8.5745363
0.56691033 2.2590795 8.7745361
0.34810981 0.069986708 -0.025464036
0.36800078 0.26899514 -0.025464036
0.38789174 0.46800354 -0.025464036
0.40778267 0.66701198 -0.025464036
0.42767364 0.86602038 -0.025464036
0.4475646 1.0650288 -0.025464036
0.46745557 1.2640373 -0.025464036
0.4873465 1.4630456 -0.025464036
0.50723743 1.6620541 -0.025464036
0.5271284 1.8610624 -0.025464036
0.54701936 2.060071 -0.025464036
0.56691033 2.2590795 -0.025464036
0.58680129 2.4580879 -0.025464036
0.60669225 2.6570961 -0.025464036
0.62658322 2.8561046 -0.025464036
0.58680129 2.4580879 -0.025464036
0.38779289 2.4779787 -0.025464036
0.18878445 2.4978697 -0.025464036
-0.010223982 2.5177608 -0.025464036
-0.20923239 2.5376515 -0.025464036
-0.4082408 2.5575426 -0.025464036
-0.60724926 2.5774336 -0.025464036
-0.80625761 2.5973246 -0.025464036
-1.0052661 2.6172154 -0.025464036
-1.2042744 2.6371064 -0.025464036
-1.4032829 2.6569974 -0.025464036
-1.6022913 2.6768882 -0.025464036
-1.8012998 2.6967793 -0.025464036
-2.000308 2.7166703 -0.025464036
-2.1993165 2.7365611 -0.025464036
-2.398325 2.7564521 -0.025464036
-2.5973334 2.7763431 -0.025464036
-2.7963419 2.7962341 -0.025464036
-2.9953501 2.8161249 -0.025464036
-3.1943586 2.8360159 -0.025464036
-3.3933671 2.855907 -0.025464036
-3.5923753 2.8757977 -0.025464036
-3.791384 2.8956888 -0.025464036
-3.9903922 2.9155798 -0.025464036
-4.1894007 2.9354708 -0.025464036
-4.3884091 2.9553616 -0.025464036
-4.5874171 2.9752526 -0.025464036
-4.7864261 2.9951437 -0.025464036
-4.9854341 3.0150344 -0.025464036
-5.184443 3.0349255 -0.025464036
0.58680129 2.4580879 -0.025464036
0.58680129 2.4580879 0.17453597
0.58680129 2.4580879 0.37453598
0.58680129 2.4580879 0.57453597
0.58680129 2.4580879 0.77453595
0.58680129 2.4580879 0.97453594
0.58680129 2.4580879 1.174536
0.58680129 2.4580879 1.3745359
0.58680129 2.4580879 1.574536
0.58680129 2.4580879 1.7745359
0.58680129 2.4580879 1.9745359
0.58680129 2.4580879 2.174536
0.58680129 2.4580879 2.374536
0.58680129 2.4580879 2.5745358
0.58680129 2.4580879 2.7745359
0.58680129 2.4580879 2.9745359
0.58680129 2.4580879 3.174536
0.58680129 2.4580879 3.374536
0.58680129 2.4580879 3.5745358
0.58680129 2.4580879 3.7745359
0.58680129 2.4580879 3.9745359
0.58680129 2.4580879 4.1745358
0.58680129 2.4580879 4.374536
0.58680129 2.4580879 4.5745358
0.58680129 2.4580879 4.7745361
0.58680129 2.4580879 4.9745359
0.58680129 2.4580879 5.1745358
0.58680129 2.4580879 5.374536
0.58680129 2.4580879 5.5745358
0.58680129 2.4580879 5.7745361
0.58680129 2.4580879 5.9745359
0.58680129 2.4580879 6.1745358
0.58680129 2.4580879 6.374536
0.58680129 2.4580879 6.5745358
0.58680129 2.4580879 6.7745361
0.58680129 2.4580879 6.9745359
0.58680129 2.4580879 7.1745358
0.58680129 2.4580879 7.374536
0.58680129 2.4580879 7.5745358
0.58680129 2.4580879 7.7745361
0.58680129 2.4580879 7.9745359
0.58680129 2.4580879 8.1745358
0.58680129 2.4580879 8.3745356
0.58680129 2.4580879 8.5745363
0.58680129 2.4580879 8.7745361
0.34810981 0.069986708 -0.025464036
0.36800078 0.26899514 -0.025464036
0.38789174 0.46800354 -0.025464036
0.40778267 0.66701198 -0.025464036
0.42767364 0.86602038 -0.025464036
0.4475646 1.0650288 -0.025464036
0.46745557 1.2640373 -0.025464036
0.4873465 1.4630456 -0.025464036
0.50723743 1.6620541 -0.025464036
0.5271284 1.8610624 -0.025464036
0.54701936 2.060071 -0.025464036
0.56691033 2.2590795 -0.025464036
0.58680129 2.4580879 -0.025464036
0.60669225 2.6570961 -0.025464036
0.62658322 2.8561046 -0.025464036
0.60669225 2.6570961 -0.025464036
0.40768382 2.6769869 -0.025464036
0.20867538 2.696878 -0.025464036
0.0096669551 2.716769 -0.025464036
-0.18934146 2.7366598 -0.025464036
-0.38834986 2.7565508 -0.025464036
-0.5873583 2.7764418 -0.025464036
-0.78636664 2.7963328 -0.025464036
-0.98537511 2.8162236 -0.025464036
-1.1843835 2.8361146 -0.025464036
-1.383392 2.8560057 -0.025464036
-1.5824004 2.8758965 -0.025464036
-1.7814089 2.8957875 -0.025464036
-1.9804171 2.9156785 -0.025464036
-2.1794255 2.9355695 -0.025464036
-2.3784339 2.9554603 -0.025464036
-2.5774424 2.9753513 -0.025464036
-2.7764509 2.9952424 -0.025464036
-2.9754591 3.0151331 -0.025464036
-3.1744676 3.0350242 -0.025464036
-3.373476 3.0549152 -0.025464036
-3.5724843 3.074806 -0.025464036
-3.771493 3.094697 -0.025464036
-3.9705012 3.114588 -0.025464036
-4.1695099 3.134479 -0.025464036
-4.3685184 3.1543698 -0.025464036
-4.5675263 3.1742609 -0.025464036
-4.7665353 3.1941519 -0.025464036
-4.9655433 3.2140427 -0.025464036
-5.1645522 3.2339337 -0.025464036
0.60669225 2.6570961 -0.025464036
0.60669225 2.6570961 0.17453597
0.60669225 2.6570961 0.37453598
0.60669225 2.6570961 0.57453597
0.60669225 2.6570961 0.77453595
0.60669225 2.6570961 0.97453594
0.60669225 2.6570961 1.174536
0.60669225 2.6570961 1.3745359
0.60669225 2.6570961 1.574536
0.60669225 2.6570961 1.7745359
0.60669225 2.6570961 1.9745359
0.60669225 2.6570961 2.174536
0.60669225 2.6570961 2.374536
0.60669225 2.6570961 2.5745358
0.60669225 2.6570961 2.7745359
0.60669225 2.6570961 2.9745359
0.60669225 2.6570961 3.174536
0.60669225 2.6570961 3.374536
0.60669225 2.6570961 3.5745358
0.60669225 2.6570961 3.7745359
0.60669225 2.6570961 3.9745359
0.60669225 2.6570961 4.1745358
0.60669225 2.6570961 4.374536
0.60669225 2.6570961 4.5745358
0.60669225 2.6570961 4.7745361
0.60669225 2.6570961 4.9745359
0.60669225 2.6570961 5.1745358
0.60669225 2.6570961 5.374536
0.60669225 2.6570961 5.5745358
0.60669225 2.6570961 5.7745361
0.60669225 2.6570961 5.9745359
0.60669225 2.6570961 6.1745358
0.60669225 2.6570961 6.374536
0.60669225 2.6570961 6.5745358
0.60669225 2.6570961 6.7745361
0.60669225 2.6570961 6.9745359
0.60669225 2.6570961 7.1745358
0.60669225 2.6570961 7.374536
0.60669225 2.6570961 7.5745358
0.60669225 2.6570961 7.7745361
0.60669225 2.6570961 7.9745359
0.60669225 2.6570961 8.1745358
0.60669225 2.6570961 8.3745356
0.60669225 2.6570961 8.5745363
0.60669225 2.6570961 8.7745361
0.34810981 0.069986708 -0.025464036
0.36800078 0.26899514 -0.025464036
0.38789174 0.46800354 -0.025464036
0.40778267 0.66701198 -0.025464036
0.42767364 0.86602038 -0.025464036
0.4475646 1.0650288 -0.025464036
0.46745557 1.2640373 -0.025464036
0.4873465 1.4630456 -0.025464036
0.50723743 1.6620541 -0.025464036
0.5271284 1.8610624 -0.025464036
0.54701936 2.060071 -0.025464036
0.56691033 2.2590795 -0.025464036
0.58680129 2.4580879 -0.025464036
0.60669225 2.6570961 -0.025464036
0.62658322 2.8561046 -0.025464036
0.62658322 2.8561046 -0.025464036
0.42757478 2.8759954 -0.025464036
0.22856635 2.8958864 -0.025464036
0.029557915 2.9157774 -0.025464036
-0.16945049 2.9356682 -0.025464036
-0.3684589 2.9555593 -0.025464036
-0.56746733 2.9754503 -0.025464036
-0.76647568 2.9953411 -0.025464036
-0.96548414 3.0152321 -0.025464036
-1.1644925 3.0351231 -0.025464036
-1.363501 3.0550141 -0.025464036
-1.5625094 3.0749049 -0.025464036
-1.7615179 3.0947959 -0.025464036
-1.9605261 3.114687 -0.025464036
-2.1595347 3.1345778 -0.025464036
-2.3585432 3.1544688 -0.025464036
-2.5575516 3.1743598 -0.025464036
-2.7565601 3.1942508 -0.025464036
-2.9555683 3.2141416 -0.025464036
-3.1545768 3.2340326 -0.025464036
-3.3535852 3.2539237 -0.025464036
-3.5525935 3.2738144 -0.025464036
-3.7516022 3.2937055 -0.025464036
-3.9506104 3.3135965 -0.025464036
-4.1496191 3.3334875 -0.025464036
-4.3486271 3.3533783 -0.025464036
-4.5476356 3.3732693 -0.025464036
-4.746644 3.3931603 -0.025464036
-4.9456525 3.4130511 -0.025464036
-5.1446609 3.4329422 -0.025464036
0.62658322 2.8561046 -0.025464036
0.62658322 2.8561046 0.17453597
0.62658322 2.8561046 0.37453598
0.62658322 2.8561046 0.57453597
0.62658322 2.8561046 0.77453595
0.62658322 2.8561046 0.97453594
0.62658322 2.8561046 1.174536
0.62658322 2.8561046 1.3745359
0.62658322 2.8561046 1.574536
0.62658322 2.8561046 1.7745359
0.62658322 2.8561046 1.9745359
0.62658322 2.8561046 2.174536
0.62658322 2.8561046 2.374536
0.62658322 2.8561046 2.5745358
0.62658322 2.8561046 2.7745359
0.62658322 2.8561046 2.9745359
0.62658322 2.8561046 3.174536
0.62658322 2.8561046 3.374536
0.62658322 2.8561046 3.5745358
0.62658322 2.8561046 3.7745359
0.62658322 2.8561046 3.9745359
0.62658322 2.8561046 4.1745358
0.62658322 2.8561046 4.374536
0.62658322 2.8561046 4.5745358
0.62658322 2.8561046 4.7745361
0.62658322 2.8561046 4.9745359
0.62658322 2.8561046 5.1745358
0.62658322 2.8561046 5.374536
0.62658322 2.8561046 5.5745358
0.62658322 2.8561046 5.7745361
0.62658322 2.8561046 5.9745359
0.62658322 2.8561046 6.1745358
0.62658322 2.8561046 6.374536
0.62658322 2.8561046 6.5745358
0.62658322 2.8561046 6.7745361
0.62658322 2.8561046 6.9745359
0.62658322 2.8561046 7.1745358
0.62658322 2.8561046 7.374536
0.62658322 2.8561046 7.5745358
0.62658322 2.8561046 7.7745361
0.62658322 2.8561046 7.9745359
0.62658322 2.8561046 8.1745358
0.62658322 2.8561046 8.3745356
0.62658322 2.8561046 8.5745363
0.62658322 2.8561046 8.7745361
0.34810981 0.069986708 -0.025464036
0.14910139 0.089877665 -0.025464036
-0.049907025 0.10976862 -0.025464036
-0.24891546 0.12965958 -0.025464036
-0.44792387 0.14955053 -0.025464036
-0.64693224 0.16944149 -0.025464036
-0.84594071 0.18933246 -0.025464036
-1.0449491 0.20922339 -0.025464036
-1.2439575 0.22911435 -0.025464036
-1.4429659 0.2490053 -0.025464036
-1.6419743 0.26889625 -0.025464036
-1.8409828 0.28878722 -0.025464036
-2.0399914 0.30867818 -0.025464036
-2.2389996 0.32856911 -0.025464036
-2.4380081 0.34846008 -0.025464036
-2.6370165 0.36835104 -0.025464036
-2.836025 0.38824201 -0.025464036
-3.0350335 0.40813297 -0.025464036
-3.2340417 0.4280239 -0.025464036
-3.4330502 0.44791487 -0.025464036
-3.6320586 0.46780583 -0.025464036
-3.8310668 0.48769677 -0.025464036
-4.0300756 0.50758773 -0.025464036
-4.2290835 0.52747869 -0.025464036
-4.4280925 0.54736966 -0.025464036
-4.6271005 0.56726062 -0.025464036
-4.8261089 0.58715153 -0.025464036
-5.0251174 0.60704255 -0.025464036
-5.2241259 0.62693346 -0.025464036
-5.4231343 0.64682442 -0.025464036
0.34810981 0.069986708 -0.025464036
0.34810981 0.069986708 0.17453597
0.34810981 0.069986708 0.37453598
0.34810981 0.069986708 0.57453597
0.34810981 0.069986708 0.77453595
0.34810981 0.069986708 0.97453594
0.34810981 0.069986708 1.174536
0.34810981 0.069986708 1.3745359
0.34810981 0.069986708 1.574536
0.34810981 0.069986708 1.7745359
0.34810981 0.069986708 1.9745359
0.34810981 0.069986708 2.174536
0.34810981 0.069986708 2.374536
0.34810981 0.069986708 2.5745358
0.34810981 0.069986708 2.7745359
0.34810981 0.069986708 2.9745359
0.34810981 0.069986708 3.174536
0.34810981 0.069986708 3.374536
0.34810981 0.069986708 3.5745358
0.34810981 0.069986708 3.7745359
0.34810981 0.069986708 3.9745359
0.34810981 0.069986708 4.1745358
0.34810981 0.069986708 4.374536
0.34810981 0.069986708 4.5745358
0.34810981 0.069986708 4.7745361
0.34810981 0.069986708 4.9745359
0.34810981 0.069986708 5.1745358
0.34810981 0.069986708 5.374536
0.34810981 0.069986708 5.5745358
0.34810981 0.069986708 5.7745361
0.34810981 0.069986708 5.9745359
0.34810981 0.069986708 6.1745358
0.34810981 0.069986708 6.374536
0.34810981 0.069986708 6.5745358
0.34810981 0.069986708 6.7745361
0.34810981 0.069986708 6.9745359
0.34810981 0.069986708 7.1745358
0.34810981 0.069986708 7.374536
0.34810981 0.069986708 7.5745358
0.34810981 0.069986708 7.7745361
0.34810981 0.069986708 7.9745359
0.34810981 0.069986708 8.1745358
0.34810981 0.069986708 8.3745356
0.34810981 0.069986708 8.5745363
0.34810981 0.069986708 8.7745361
0.34810981 0.069986708 -0.025464036
0.14910139 0.089877665 -0.025464036
-0.049907025 0.10976862 -0.025464036
-0.24891546 0.12965958 -0.025464036
-0.44792387 0.14955053 -0.025464036
-0.64693224 0.16944149 -0.025464036
-0.84594071 0.18933246 -0.025464036
-1.0449491 0.20922339 -0.025464036
-1.2439575 0.22911435 -0.025464036
-1.4429659 0.2490053 -0.025464036
-1.6419743 0.26889625 -0.025464036
-1.8409828 0.28878722 -0.025464036
-2.0399914 0.30867818 -0.025464036
-2.2389996 0.32856911 -0.025464036
-2.4380081 0.34846008 -0.025464036
-2.6370165 0.36835104 -0.025464036
-2.836025 0.38824201 -0.025464036
-3.0350335 0.40813297 -0.025464036
-3.2340417 0.4280239 -0.025464036
-3.4330502 0.44791487 -0.025464036
-3.6320586 0.46780583 -0.025464036
-3.8310668 0.48769677 -0.025464036
-4.0300756 0.50758773 -0.025464036
-4.2290835 0.52747869 -0.025464036
-4.4280925 0.54736966 -0.025464036
-4.6271005 0.56726062 -0.025464036
-4.8261089 0.58715153 -0.025464036
-5.0251174 0.60704255 -0.025464036
-5.2241259 0.62693346 -0.025464036
-5.4231343 0.64682442 -0.025464036
0.14910139 0.089877665 -0.025464036
0.14910139 0.089877665 0.17453597
0.14910139 0.089877665 0.37453598
0.14910139 0.089877665 0.57453597
0.14910139 0.089877665 0.77453595
0.14910139 0.089877665 0.97453594
0.14910139 0.089877665 1.174536
0.14910139 0.089877665 1.3745359
0.14910139 0.089877665 1.574536
0.14910139 0.089877665 1.7745359
0.14910139 0.089877665 1.9745359
0.14910139 0.089877665 2.174536
0.14910139 0.089877665 2.374536
0.14910139 0.089877665 2.5745358
0.14910139 0.089877665 2.7745359
0.14910139 0.089877665 2.9745359
0.14910139 0.089877665 3.174536
0.14910139 0.089877665 3.374536
0.14910139 0.089877665 3.5745358
0.14910139 0.089877665 3.7745359
0.14910139 0.089877665 3.9745359
0.14910139 0.089877665 4.1745358
0.14910139 0.089877665 4.374536
0.14910139 0.089877665 4.5745358
0.14910139 0.089877665 4.7745361
0.14910139 0.089877665 4.9745359
0.14910139 0.089877665 5.1745358
0.14910139 0.089877665 5.374536
0.14910139 0.089877665 5.5745358
0.14910139 0.089877665 5.7745361
0.14910139 0.089877665 5.9745359
0.14910139 0.089877665 6.1745358
0.14910139 0.089877665 6.374536
0.14910139 0.089877665 6.5745358
0.14910139 0.089877665 6.7745361
0.14910139 0.089877665 6.9745359
0.14910139 0.089877665 7.1745358
0.14910139 0.089877665 7.374536
0.14910139 0.089877665 7.5745358
0.14910139 0.089877665 7.7745361
0.14910139 0.089877665 7.9745359
0.14910139 0.089877665 8.1745358
0.14910139 0.089877665 8.3745356
0.14910139 0.089877665 8.5745363
0.14910139 0.089877665 8.7745361
0.34810981 0.069986708 -0.025464036
0.14910139 0.089877665 -0.025464036
-0.049907025 0.10976862 -0.025464036
-0.24891546 0.12965958 -0.025464036
-0.44792387 0.14955053 -0.025464036
-0.64693224 0.16944149 -0.025464036
-0.84594071 0.18933246 -0.025464036
-1.0449491 0.20922339 -0.025464036
-1.2439575 0.22911435 -0.025464036
-1.4429659 0.2490053 -0.025464036
-1.6419743 0.26889625 -0.025464036
-1.8409828 0.28878722 -0.025464036
-2.0399914 0.30867818 -0.025464036
-2.2389996 0.32856911 -0.025464036
-2.4380081 0.34846008 -0.025464036
-2.6370165 0.36835104 -0.025464036
-2.836025 0.38824201 -0.025464036
-3.0350335 0.40813297 -0.025464036
-3.2340417 0.4280239 -0.025464036
-3.4330502 0.44791487 -0.025464036
-3.6320586 0.46780583 -0.025464036
-3.8310668 0.48769677 -0.025464036
-4.0300756 0.50758773 -0.025464036
-4.2290835 0.52747869 -0.025464036
-4.4280925 0.54736966 -0.025464036
-4.6271005 0.56726062 -0.025464036
-4.8261089 0.58715153 -0.025464036
-5.0251174 0.60704255 -0.025464036
-5.2241259 0.62693346 -0.025464036
-5.4231343 0.64682442 -0.025464036
-0.049907025 0.10976862 -0.025464036
-0.049907025 0.10976862 0.17453597
-0.049907025 0.10976862 0.37453598
-0.049907025 0.10976862 0.57453597
-0.049907025 0.10976862 0.77453595
-0.049907025 0.10976862 0.97453594
-0.049907025 0.10976862 1.174536
-0.049907025 0.10976862 1.3745359
-0.049907025 0.10976862 1.574536
-0.049907025 0.10976862 1.7745359
-0.049907025 0.10976862 1.9745359
-0.049907025 0.10976862 2.174536
-0.049907025 0.10976862 2.374536
-0.049907025 0.10976862 2.5745358
-0.049907025 0.10976862 2.7745359
-0.049907025 0.10976862 2.9745359
-0.049907025 0.10976862 3.174536
-0.049907025 0.10976862 3.374536
-0.049907025 0.10976862 3.5745358
-0.049907025 0.10976862 3.7745359
-0.049907025 0.10976862 3.9745359
-0.049907025 0.10976862 4.1745358
-0.049907025 0.10976862 4.374536
-0.049907025 0.10976862 4.5745358
-0.049907025 0.10976862 4.7745361
-0.049907025 0.10976862 4.9745359
-0.049907025 0.10976862 5.1745358
-0.049907025 0.10976862 5.374536
-0.049907025 0.10976862 5.5745358
-0.049907025 0.10976862 5.7745361
-0.049907025 0.10976862 5.9745359
-0.049907025 0.10976862 6.1745358
-0.049907025 0.10976862 6.374536
-0.049907025 0.10976862 6.5745358
-0.049907025 0.10976862 6.7745361
-0.049907025 0.10976862 6.9745359
-0.049907025 0.10976862 7.1745358
-0.049907025 0.10976862 7.374536
-0.049907025 0.10976862 7.5745358
-0.049907025 0.10976862 7.7745361
-0.049907025 0.10976862 7.9745359
-0.049907025 0.10976862 8.1745358
-0.049907025 0.10976862 8.3745356
-0.049907025 0.10976862 8.5745363
-0.049907025 0.10976862 8.7745361
0.34810981 0.069986708 -0.025464036
0.14910139 0.089877665 -0.025464036
-0.049907025 0.10976862 -0.025464036
-0.24891546 0.12965958 -0.025464036
-0.44792387 0.14955053 -0.025464036
-0.64693224 0.16944149 -0.025464036
-0.84594071 0.18933246 -0.025464036
-1.0449491 0.20922339 -0.025464036
-1.2439575 0.22911435 -0.025464036
-1.4429659 0.2490053 -0.025464036
-1.6419743 0.26889625 -0.025464036
-1.8409828 0.28878722 -0.025464036
-2.0399914 0.30867818 -0.025464036
-2.2389996 0.32856911 -0.025464036
-2.4380081 0.34846008 -0.025464036
-2.6370165 0.36835104 -0.025464036
-2.836025 0.38824201 -0.025464036
-3.0350335 0.40813297 -0.025464036
-3.2340417 0.4280239 -0.025464036
-3.4330502 0.44791487 -0.025464036
-3.6320586 0.46780583 -0.025464036
-3.8310668 0.48769677 -0.025464036
-4.0300756 0.50758773 -0.025464036
-4.2290835 0.52747869 -0.025464036
-4.4280925 0.54736966 -0.025464036
-4.6271005 0.56726062 -0.025464036
-4.8261089 0.58715153 -0.025464036
-5.0251174 0.60704255 -0.025464036
-5.2241259 0.62693346 -0.025464036
-5.4231343 0.64682442 -0.025464036
-0.24891546 0.12965958 -0.025464036
-0.24891546 0.12965958 0.17453597
-0.24891546 0.12965958 0.37453598
-0.24891546 0.12965958 0.57453597
-0.24891546 0.12965958 0.77453595
-0.24891546 0.12965958 0.97453594
-0.24891546 0.12965958 1.174536
-0.24891546 0.12965958 1.3745359
-0.24891546 0.12965958 1.574536
-0.24891546 0.12965958 1.7745359
-0.24891546 0.12965958 1.9745359
-0.24891546 0.12965958 2.174536
-0.24891546 0.12965958 2.374536
-0.24891546 0.12965958 2.5745358
-0.24891546 0.12965958 2.7745359
-0.24891546 0.12965958 2.9745359
-0.24891546 0.12965958 3.174536
-0.24891546 0.12965958 3.374536
-0.24891546 0.12965958 3.5745358
-0.24891546 0.12965958 3.7745359
-0.24891546 0.12965958 3.9745359
-0.24891546 0.12965958 4.1745358
-0.24891546 0.12965958 4.374536
-0.24891546 0.12965958 4.5745358
-0.24891546 0.12965958 4.7745361
-0.24891546 0.12965958 4.9745359
-0.24891546 0.12965958 5.1745358
-0.24891546 0.12965958 5.374536
-0.24891546 0.12965958 5.5745358
-0.24891546 0.12965958 5.7745361
-0.24891546 0.12965958 5.9745359
-0.24891546 0.12965958 6.1745358
-0.24891546 0.12965958 6.374536
-0.24891546 0.12965958 6.5745358
-0.24891546 0.12965958 6.7745361
-0.24891546 0.12965958 6.9745359
-0.24891546 0.12965958 7.1745358
-0.24891546 0.12965958 7.374536
-0.24891546 0.12965958 7.5745358
-0.24891546 0.12965958 7.7745361
-0.24891546 0.12965958 7.9745359
-0.24891546 0.12965958 8.1745358
-0.24891546 0.12965958 8.3745356
-0.24891546 0.12965958 8.5745363
-0.24891546 0.12965958 8.7745361
0.34810981 0.069986708 -0.025464036
0.14910139 0.089877665 -0.025464036
-0.049907025 0.10976862 -0.025464036
-0.24891546 0.12965958 -0.025464036
-0.44792387 0.14955053 -0.025464036
-0.64693224 0.16944149 -0.025464036
-0.84594071 0.18933246 -0.025464036
-1.0449491 0.20922339 -0.025464036
-1.2439575 0.22911435 -0.025464036
-1.4429659 0.2490053 -0.025464036
-1.6419743 0.26889625 -0.025464036
-1.8409828 0.28878722 -0.025464036
-2.0399914 0.30867818 -0.025464036
-2.2389996 0.32856911 -0.025464036
-2.4380081 0.34846008 -0.025464036
-2.6370165 0.36835104 -0.025464036
-2.836025 0.38824201 -0.025464036
-3.0350335 0.40813297 -0.025464036
-3.2340417 0.4280239 -0.025464036
-3.4330502 0.44791487 -0.025464036
-3.6320586 0.46780583 -0.025464036
-3.8310668 0.48769677 -0.025464036
-4.0300756 0.50758773 -0.025464036
-4.2290835 0.52747869 -0.025464036
-4.4280925 0.54736966 -0.025464036
-4.6271005 0.56726062 -0.025464036
-4.8261089 0.58715153 -0.025464036
-5.0251174 0.60704255 -0.025464036
-5.2241259 0.62693346 -0.025464036
-5.4231343 0.64682442 -0.025464036
-0.44792387 0.14955053 -0.025464036
-0.44792387 0.14955053 0.17453597
-0.44792387 0.14955053 0.37453598
-0.44792387 0.14955053 0.57453597
-0.44792387 0.14955053 0.77453595
-0.44792387 0.14955053 0.97453594
-0.44792387 0.14955053 1.174536
-0.44792387 0.14955053 1.3745359
-0.44792387 0.14955053 1.574536
-0.44792387 0.14955053 1.7745359
-0.44792387 0.14955053 1.9745359
-0.44792387 0.14955053 2.174536
-0.44792387 0.14955053 2.374536
-0.44792387 0.14955053 2.5745358
-0.44792387 0.14955053 2.7745359
-0.44792387 0.14955053 2.9745359
-0.44792387 0.14955053 3.174536
-0.44792387 0.14955053 3.374536
-0.44792387 0.14955053 3.5745358
-0.44792387 0.14955053 3.7745359
-0.44792387 0.14955053 3.9745359
-0.44792387 0.14955053 4.1745358
-0.44792387 0.14955053 4.374536
