# .PCD v0.7 - Point Cloud Data file format
VERSION 0.7
FIELDS x y z
SIZE 4 4 4
TYPE F F F
COUNT 1 1 1
WIDTH 1524
HEIGHT 1
VIEWPOINT 0 0 0 1 0 0 0
POINTS 1524
DATA ascii
1.3119583 1.0623728 7.7376618
1.3119583 1.0623728 7.9376621
1.3119583 1.0623728 8.1376619
1.3119583 1.0623728 8.3376617
1.3119583 1.0623728 8.5376616
1.3119583 1.0623728 8.7376623
1.3119583 1.0623728 8.9376621
0.47304291 0.20433958 0.13766181
0.61286217 0.34734511 0.13766181
0.75268137 0.49035063 0.13766181
0.89250064 0.63335621 0.13766181
1.0323199 0.7763617 0.13766181
1.172139 0.91936725 0.13766181
1.3119583 1.0623728 0.13766181
1.4517776 1.2053783 0.13766181
1.5915968 1.3483838 0.13766181
1.731416 1.4913893 0.13766181
1.8712353 1.6343949 0.13766181
2.0110545 1.7774004 0.13766181
2.1508739 1.920406 0.13766181
2.2906928 2.0634115 0.13766181
2.4305122 2.2064168 0.13766181
1.4517776 1.2053783 0.13766181
1.308772 1.3451976 0.13766181
1.1657665 1.4850167 0.13766181
1.022761 1.624836 0.13766181
0.87975544 1.7646552 0.13766181
0.73674989 1.9044745 0.13766181
0.59374434 2.0442936 0.13766181
0.45073885 2.1841128 0.13766181
0.3077333 2.3239322 0.13766181
0.16472782 2.4637513 0.13766181
0.021722253 2.6035707 0.13766181
-0.12128331 2.7433898 0.13766181
-0.26428887 2.8832092 0.13766181
-0.40729427 3.0230284 0.13766181
-0.55029982 3.1628475 0.13766181
-0.69330537 3.3026669 0.13766181
-0.83631092 3.442486 0.13766181
-0.97931653 3.5823054 0.13766181
-1.122322 3.7221243 0.13766181
-1.2653275 3.8619437 0.13766181
-1.4083331 4.0017629 0.13766181
-1.5513384 4.141582 0.13766181
-1.6943442 4.2814016 0.13766181
-1.8373495 4.4212208 0.13766181
-1.9803553 4.5610399 0.13766181
-2.1233606 4.7008591 0.13766181
-2.266366 4.8406782 0.13766181
-2.4093719 4.9804978 0.13766181
-2.5523772 5.120317 0.13766181
-2.6953828 5.2601361 0.13766181
1.4517776 1.2053783 0.13766181
1.4517776 1.2053783 0.3376618
1.4517776 1.2053783 0.53766179
1.4517776 1.2053783 0.73766184
1.4517776 1.2053783 0.93766183
1.4517776 1.2053783 1.1376618
1.4517776 1.2053783 1.3376619
1.4517776 1.2053783 1.5376618
1.4517776 1.2053783 1.7376618
1.4517776 1.2053783 1.9376618
1.4517776 1.2053783 2.1376617
1.4517776 1.2053783 2.3376617
1.4517776 1.2053783 2.5376618
1.4517776 1.2053783 2.7376616
1.4517776 1.2053783 2.9376616
1.4517776 1.2053783 3.1376617
1.4517776 1.2053783 3.3376617
1.4517776 1.2053783 3.5376618
1.4517776 1.2053783 3.7376616
1.4517776 1.2053783 3.9376616
1.4517776 1.2053783 4.1376619
1.4517776 1.2053783 4.3376617
1.4517776 1.2053783 4.537662
1.4517776 1.2053783 4.7376618
1.4517776 1.2053783 4.9376621
1.4517776 1.2053783 5.1376619
1.4517776 1.2053783 5.3376617
1.4517776 1.2053783 5.537662
1.4517776 1.2053783 5.7376618
1.4517776 1.2053783 5.9376621
1.4517776 1.2053783 6.1376619
1.4517776 1.2053783 6.3376617
1.4517776 1.2053783 6.537662
1.4517776 1.2053783 6.7376618
1.4517776 1.2053783 6.9376621
1.4517776 1.2053783 7.1376619
1.4517776 1.2053783 7.3376617
1.4517776 1.2053783 7.537662
1.4517776 1.2053783 7.7376618
1.4517776 1.2053783 7.9376621
1.4517776 1.2053783 8.1376619
1.4517776 1.2053783 8.3376617
1.4517776 1.2053783 8.5376616
1.4517776 1.2053783 8.7376623
1.4517776 1.2053783 8.9376621
0.47304291 0.20433958 0.13766181
0.61286217 0.34734511 0.13766181
0.75268137 0.49035063 0.13766181
0.89250064 0.63335621 0.13766181
1.0323199 0.7763617 0.13766181
1.172139 0.91936725 0.13766181
1.3119583 1.0623728 0.13766181
1.4517776 1.2053783 0.13766181
1.5915968 1.3483838 0.13766181
1.731416 1.4913893 0.13766181
1.8712353 1.6343949 0.13766181
2.0110545 1.7774004 0.13766181
2.1508739 1.920406 0.13766181
2.2906928 2.0634115 0.13766181
2.4305122 2.2064168 0.13766181
1.5915968 1.3483838 0.13766181
1.4485912 1.488203 0.13766181
1.3055857 1.6280223 0.13766181
1.1625803 1.7678416 0.13766181
1.0195746 1.9076607 0.13766181
0.87656915 2.0474801 0.13766181
0.7335636 2.1872993 0.13766181
0.59055811 2.3271184 0.13766181
0.44755256 2.4669378 0.13766181
0.30454707 2.6067569 0.13766181
0.16154152 2.7465761 0.13766181
0.01853596 2.8863955 0.13766181
-0.1244696 3.0262148 0.13766181
-0.26747501 3.1660337 0.13766181
-0.41048056 3.3058531 0.13766181
-0.55348611 3.4456723 0.13766181
-0.69649166 3.5854917 0.13766181
-0.83949727 3.7253108 0.13766181
-0.98250264 3.8651299 0.13766181
-1.1255082 4.0049491 0.13766181
-1.2685138 4.1447687 0.13766181
-1.4115192 4.2845879 0.13766181
-1.5545249 4.424407 0.13766181
-1.6975303 4.5642262 0.13766181
-1.840536 4.7040458 0.13766181
-1.9835414 4.8438649 0.13766181
-2.1265469 4.9836841 0.13766181
-2.2695525 5.1235032 0.13766181
-2.4125578 5.2633224 0.13766181
-2.5555637 5.403142 0.13766181
1.5915968 1.3483838 0.13766181
1.5915968 1.3483838 0.3376618
1.5915968 1.3483838 0.53766179
1.5915968 1.3483838 0.73766184
1.5915968 1.3483838 0.93766183
1.5915968 1.3483838 1.1376618
1.5915968 1.3483838 1.3376619
1.5915968 1.3483838 1.5376618
1.5915968 1.3483838 1.7376618
1.5915968 1.3483838 1.9376618
1.5915968 1.3483838 2.1376617
1.5915968 1.3483838 2.3376617
1.5915968 1.3483838 2.5376618
1.5915968 1.3483838 2.7376616
1.5915968 1.3483838 2.9376616
1.5915968 1.3483838 3.1376617
1.5915968 1.3483838 3.3376617
1.5915968 1.3483838 3.5376618
1.5915968 1.3483838 3.7376616
1.5915968 1.3483838 3.9376616
1.5915968 1.3483838 4.1376619
1.5915968 1.3483838 4.3376617
1.5915968 1.3483838 4.537662
1.5915968 1.3483838 4.7376618
1.5915968 1.3483838 4.9376621
1.5915968 1.3483838 5.1376619
1.5915968 1.3483838 5.3376617
1.5915968 1.3483838 5.537662
1.5915968 1.3483838 5.7376618
1.5915968 1.3483838 5.9376621
1.5915968 1.3483838 6.1376619
1.5915968 1.3483838 6.3376617
1.5915968 1.3483838 6.537662
1.5915968 1.3483838 6.7376618
1.5915968 1.3483838 6.9376621
1.5915968 1.3483838 7.1376619
1.5915968 1.3483838 7.3376617
1.5915968 1.3483838 7.537662
1.5915968 1.3483838 7.7376618
1.5915968 1.3483838 7.9376621
1.5915968 1.3483838 8.1376619
1.5915968 1.3483838 8.3376617
1.5915968 1.3483838 8.5376616
1.5915968 1.3483838 8.7376623
1.5915968 1.3483838 8.9376621
0.47304291 0.20433958 0.13766181
0.61286217 0.34734511 0.13766181
0.75268137 0.49035063 0.13766181
0.89250064 0.63335621 0.13766181
1.0323199 0.7763617 0.13766181
1.172139 0.91936725 0.13766181
1.3119583 1.0623728 0.13766181
1.4517776 1.2053783 0.13766181
1.5915968 1.3483838 0.13766181
1.731416 1.4913893 0.13766181
1.8712353 1.6343949 0.13766181
2.0110545 1.7774004 0.13766181
2.1508739 1.920406 0.13766181
2.2906928 2.0634115 0.13766181
2.4305122 2.2064168 0.13766181
1.731416 1.4913893 0.13766181
1.5884105 1.6312085 0.13766181
1.4454049 1.7710278 0.13766181
1.3023994 1.9108471 0.13766181
1.1593939 2.0506663 0.13766181
1.0163883 2.1904855 0.13766181
0.87338281 2.3303049 0.13766181
0.73037732 2.470124 0.13766181
0.58737177 2.6099432 0.13766181
0.44436628 2.7497623 0.13766181
0.3013607 2.8895817 0.13766181
0.15835515 3.0294008 0.13766181
0.015349584 3.1692202 0.13766181
-0.1276558 3.3090394 0.13766181
-0.27066138 3.4488585 0.13766181
-0.41366693 3.5886779 0.13766181
-0.55667251 3.728497 0.13766181
-0.69967806 3.8683164 0.13766181
-0.84268343 4.0081353 0.13766181
-0.98568904 4.1479549 0.13766181
-1.1286945 4.2877741 0.13766181
-1.2717 4.4275932 0.13766181
-1.4147058 4.5674124 0.13766181
-1.5577111 4.7072315 0.13766181
-1.7007169 4.8470511 0.13766181
-1.8437222 4.9868703 0.13766181
-1.9867276 5.1266894 0.13766181
-2.1297333 5.2665086 0.13766181
-2.2727387 5.4063277 0.13766181
-2.4157445 5.5461473 0.13766181
1.731416 1.4913893 0.13766181
1.731416 1.4913893 0.3376618
1.731416 1.4913893 0.53766179
1.731416 1.4913893 0.73766184
1.731416 1.4913893 0.93766183
1.731416 1.4913893 1.1376618
1.731416 1.4913893 1.3376619
1.731416 1.4913893 1.5376618
1.731416 1.4913893 1.7376618
1.731416 1.4913893 1.9376618
1.731416 1.4913893 2.1376617
1.731416 1.4913893 2.3376617
1.731416 1.4913893 2.5376618
1.731416 1.4913893 2.7376616
1.731416 1.4913893 2.9376616
1.731416 1.4913893 3.1376617
1.731416 1.4913893 3.3376617
1.731416 1.4913893 3.5376618
1.731416 1.4913893 3.7376616
1.731416 1.4913893 3.9376616
1.731416 1.4913893 4.1376619
1.731416 1.4913893 4.3376617
1.731416 1.4913893 4.537662
1.731416 1.4913893 4.7376618
1.731416 1.4913893 4.9376621
1.731416 1.4913893 5.1376619
1.731416 1.4913893 5.3376617
1.731416 1.4913893 5.537662
1.731416 1.4913893 5.7376618
1.731416 1.4913893 5.9376621
1.731416 1.4913893 6.1376619
1.731416 1.4913893 6.3376617
1.731416 1.4913893 6.537662
1.731416 1.4913893 6.7376618
1.731416 1.4913893 6.9376621
1.731416 1.4913893 7.1376619
1.731416 1.4913893 7.3376617
1.731416 1.4913893 7.537662
1.731416 1.4913893 7.7376618
1.731416 1.4913893 7.9376621
1.731416 1.4913893 8.1376619
1.731416 1.4913893 8.3376617
1.731416 1.4913893 8.5376616
1.731416 1.4913893 8.7376623
1.731416 1.4913893 8.9376621
0.47304291 0.20433958 0.13766181
0.61286217 0.34734511 0.13766181
0.75268137 0.49035063 0.13766181
0.89250064 0.63335621 0.13766181
1.0323199 0.7763617 0.13766181
1.172139 0.91936725 0.13766181
1.3119583 1.0623728 0.13766181
1.4517776 1.2053783 0.13766181
1.5915968 1.3483838 0.13766181
1.731416 1.4913893 0.13766181
1.8712353 1.6343949 0.13766181
2.0110545 1.7774004 0.13766181
2.1508739 1.920406 0.13766181
2.2906928 2.0634115 0.13766181
2.4305122 2.2064168 0.13766181
1.8712353 1.6343949 0.13766181
1.7282298 1.7742141 0.13766181
1.5852242 1.9140333 0.13766181
1.4422187 2.0538526 0.13766181
1.2992132 2.1936717 0.13766181
1.1562077 2.3334911 0.13766181
1.0132021 2.4733102 0.13766181
0.87019658 2.6131296 0.13766181
0.72719103 2.7529488 0.13766181
0.58418554 2.8927679 0.13766181
0.44117999 3.0325873 0.13766181
0.29817441 3.1724064 0.13766181
0.15516885 3.3122258 0.13766181
0.012163461 3.452045 0.13766181
-0.1308421 3.5918641 0.13766181
-0.27384767 3.7316835 0.13766181
-0.41685322 3.8715026 0.13766181
-0.5598588 4.011322 0.13766181
-0.70286417 4.1511412 0.13766181
-0.84586972 4.2909603 0.13766181
-0.98887533 4.4307795 0.13766181
-1.1318806 4.5705986 0.13766181
-1.2748865 4.7104182 0.13766181
-1.4178919 4.8502374 0.13766181
-1.5608976 4.9900565 0.13766181
-1.703903 5.1298757 0.13766181
-1.8469083 5.2696948 0.13766181
-1.9899141 5.4095144 0.13766181
-2.1329195 5.5493336 0.13766181
-2.2759252 5.6891527 0.13766181
1.8712353 1.6343949 0.13766181
1.8712353 1.6343949 0.3376618
1.8712353 1.6343949 0.53766179
1.8712353 1.6343949 0.73766184
1.8712353 1.6343949 0.93766183
1.8712353 1.6343949 1.1376618
1.8712353 1.6343949 1.3376619
1.8712353 1.6343949 1.5376618
1.8712353 1.6343949 1.7376618
1.8712353 1.6343949 1.9376618
1.8712353 1.6343949 2.1376617
1.8712353 1.6343949 2.3376617
1.8712353 1.6343949 2.5376618
1.8712353 1.6343949 2.7376616
1.8712353 1.6343949 2.9376616
1.8712353 1.6343949 3.1376617
1.8712353 1.6343949 3.3376617
1.8712353 1.6343949 3.5376618
1.8712353 1.6343949 3.7376616
1.8712353 1.6343949 3.9376616
1.8712353 1.6343949 4.1376619
1.8712353 1.6343949 4.3376617
1.8712353 1.6343949 4.537662
1.8712353 1.6343949 4.7376618
1.8712353 1.6343949 4.9376621
1.8712353 1.6343949 5.1376619
1.8712353 1.6343949 5.3376617
1.8712353 1.6343949 5.537662
1.8712353 1.6343949 5.7376618
1.8712353 1.6343949 5.9376621
1.8712353 1.6343949 6.1376619
1.8712353 1.6343949 6.3376617
1.8712353 1.6343949 6.537662
1.8712353 1.6343949 6.7376618
1.8712353 1.6343949 6.9376621
1.8712353 1.6343949 7.1376619
1.8712353 1.6343949 7.3376617
1.8712353 1.6343949 7.537662
1.8712353 1.6343949 7.7376618
1.8712353 1.6343949 7.9376621
1.8712353 1.6343949 8.1376619
1.8712353 1.6343949 8.3376617
1.8712353 1.6343949 8.5376616
1.8712353 1.6343949 8.7376623
1.8712353 1.6343949 8.9376621
0.47304291 0.20433958 0.13766181
0.61286217 0.34734511 0.13766181
0.75268137 0.49035063 0.13766181
0.89250064 0.63335621 0.13766181
1.0323199 0.7763617 0.13766181
1.172139 0.91936725 0.13766181
1.3119583 1.0623728 0.13766181
1.4517776 1.2053783 0.13766181
1.5915968 1.3483838 0.13766181
1.731416 1.4913893 0.13766181
1.8712353 1.6343949 0.13766181
2.0110545 1.7774004 0.13766181
2.1508739 1.920406 0.13766181
2.2906928 2.0634115 0.13766181
2.4305122 2.2064168 0.13766181
2.0110545 1.7774004 0.13766181
1.868049 1.9172196 0.13766181
1.7250434 2.057039 0.13766181
1.5820379 2.1968582 0.13766181
1.4390324 2.3366773 0.13766181
1.2960269 2.4764967 0.13766181
1.1530213 2.6163158 0.13766181
1.0100158 2.756135 0.13766181
0.8670103 2.8959544 0.13766181
0.72400481 3.0357735 0.13766181
0.58099926 3.1755929 0.13766181
0.43799368 3.315412 0.13766181
0.29498813 3.4552314 0.13766181
0.15198272 3.5950503 0.13766181
0.0089771673 3.7348697 0.13766181
-0.13402839 3.8746889 0.13766181
-0.27703395 4.0145082 0.13766181
-0.42003953 4.1543274 0.13766181
-0.56304491 4.2941465 0.13766181
-0.70605046 4.4339657 0.13766181
-0.84905607 4.5737853 0.13766181
-0.99206144 4.7136045 0.13766181
-1.1350671 4.8534236 0.13766181
-1.2780726 4.9932427 0.13766181
-1.4210783 5.1330624 0.13766181
-1.5640837 5.2728815 0.13766181
-1.7070891 5.4127007 0.13766181
-1.8500948 5.5525198 0.13766181
-1.9931002 5.6923389 0.13766181
-2.136106 5.8321586 0.13766181
2.0110545 1.7774004 0.13766181
2.0110545 1.7774004 0.3376618
2.0110545 1.7774004 0.53766179
2.0110545 1.7774004 0.73766184
2.0110545 1.7774004 0.93766183
2.0110545 1.7774004 1.1376618
2.0110545 1.7774004 1.3376619
2.0110545 1.7774004 1.5376618
2.0110545 1.7774004 1.7376618
2.0110545 1.7774004 1.9376618
2.0110545 1.7774004 2.1376617
2.0110545 1.7774004 2.3376617
2.0110545 1.7774004 2.5376618
2.0110545 1.7774004 2.7376616
2.0110545 1.7774004 2.9376616
2.0110545 1.7774004 3.1376617
2.0110545 1.7774004 3.3376617
2.0110545 1.7774004 3.5376618
2.0110545 1.7774004 3.7376616
2.0110545 1.7774004 3.9376616
2.0110545 1.7774004 4.1376619
2.0110545 1.7774004 4.3376617
2.0110545 1.7774004 4.537662
2.0110545 1.7774004 4.7376618
2.0110545 1.7774004 4.9376621
2.0110545 1.7774004 5.1376619
2.0110545 1.7774004 5.3376617
2.0110545 1.7774004 5.537662
2.0110545 1.7774004 5.7376618
2.0110545 1.7774004 5.9376621
2.0110545 1.7774004 6.1376619
2.0110545 1.7774004 6.3376617
2.0110545 1.7774004 6.537662
2.0110545 1.7774004 6.7376618
2.0110545 1.7774004 6.9376621
2.0110545 1.7774004 7.1376619
2.0110545 1.7774004 7.3376617
2.0110545 1.7774004 7.537662
2.0110545 1.7774004 7.7376618
2.0110545 1.7774004 7.9376621
2.0110545 1.7774004 8.1376619
2.0110545 1.7774004 8.3376617
2.0110545 1.7774004 8.5376616
2.0110545 1.7774004 8.7376623
2.0110545 1.7774004 8.9376621
0.47304291 0.20433958 0.13766181
0.61286217 0.34734511 0.13766181
0.75268137 0.49035063 0.13766181
0.89250064 0.63335621 0.13766181
1.0323199 0.7763617 0.13766181
1.172139 0.91936725 0.13766181
1.3119583 1.0623728 0.13766181
1.4517776 1.2053783 0.13766181
1.5915968 1.3483838 0.13766181
1.731416 1.4913893 0.13766181
1.8712353 1.6343949 0.13766181
2.0110545 1.7774004 0.13766181
2.1508739 1.920406 0.13766181
2.2906928 2.0634115 0.13766181
2.4305122 2.2064168 0.13766181
2.1508739 1.920406 0.13766181
2.0078683 2.0602252 0.13766181
1.8648628 2.2000444 0.13766181
1.7218572 2.3398638 0.13766181
1.5788517 2.4796829 0.13766181
1.4358462 2.6195021 0.13766181
1.2928406 2.7593215 0.13766181
1.1498351 2.8991406 0.13766181
1.0068295 3.03896 0.13766181
0.86382407 3.1787791 0.13766181
0.72081852 3.3185983 0.13766181
0.57781297 3.4584177 0.13766181
0.43480739 3.5982368 0.13766181
0.29180199 3.7380559 0.13766181
0.14879644 3.8778753 0.13766181
0.0057908744 4.0176945 0.13766181
-0.13721469 4.1575136 0.13766181
-0.28022024 4.2973332 0.13766181
-0.42322564 4.4371524 0.13766181
-0.56623119 4.5769715 0.13766181
-0.70923674 4.7167907 0.13766181
-0.85224217 4.8566098 0.13766181
-0.9952479 4.9964294 0.13766181
-1.1382533 5.1362486 0.13766181
-1.2812591 5.2760677 0.13766181
-1.4242644 5.4158869 0.13766181
-1.5672698 5.555706 0.13766181
-1.7102755 5.6955256 0.13766181
-1.8532809 5.8353443 0.13766181
-1.9962866 5.9751639 0.13766181
2.1508739 1.920406 0.13766181
2.1508739 1.920406 0.3376618
2.1508739 1.920406 0.53766179
2.1508739 1.920406 0.73766184
2.1508739 1.920406 0.93766183
2.1508739 1.920406 1.1376618
2.1508739 1.920406 1.3376619
2.1508739 1.920406 1.5376618
2.1508739 1.920406 1.7376618
2.1508739 1.920406 1.9376618
2.1508739 1.920406 2.1376617
2.1508739 1.920406 2.3376617
2.1508739 1.920406 2.5376618
2.1508739 1.920406 2.7376616
2.1508739 1.920406 2.9376616
2.1508739 1.920406 3.1376617
2.1508739 1.920406 3.3376617
2.1508739 1.920406 3.5376618
2.1508739 1.920406 3.7376616
2.1508739 1.920406 3.9376616
2.1508739 1.920406 4.1376619
2.1508739 1.920406 4.3376617
2.1508739 1.920406 4.537662
2.1508739 1.920406 4.7376618
2.1508739 1.920406 4.9376621
2.1508739 1.920406 5.1376619
2.1508739 1.920406 5.3376617
2.1508739 1.920406 5.537662
2.1508739 1.920406 5.7376618
2.1508739 1.920406 5.9376621
2.1508739 1.920406 6.1376619
2.1508739 1.920406 6.3376617
2.1508739 1.920406 6.537662
2.1508739 1.920406 6.7376618
2.1508739 1.920406 6.9376621
2.1508739 1.920406 7.1376619
2.1508739 1.920406 7.3376617
2.1508739 1.920406 7.537662
2.1508739 1.920406 7.7376618
2.1508739 1.920406 7.9376621
2.1508739 1.920406 8.1376619
2.1508739 1.920406 8.3376617
2.1508739 1.920406 8.5376616
2.1508739 1.920406 8.7376623
2.1508739 1.920406 8.9376621
0.47304291 0.20433958 0.13766181
0.61286217 0.34734511 0.13766181
0.75268137 0.49035063 0.13766181
0.89250064 0.63335621 0.13766181
1.0323199 0.7763617 0.13766181
1.172139 0.91936725 0.13766181
1.3119583 1.0623728 0.13766181
1.4517776 1.2053783 0.13766181
1.5915968 1.3483838 0.13766181
1.731416 1.4913893 0.13766181
1.8712353 1.6343949 0.13766181
2.0110545 1.7774004 0.13766181
2.1508739 1.920406 0.13766181
2.2906928 2.0634115 0.13766181
2.4305122 2.2064168 0.13766181
2.2906928 2.0634115 0.13766181
2.1476874 2.2032306 0.13766181
2.0046818 2.3430498 0.13766181
1.8616763 2.4828691 0.13766181
1.7186707 2.6226883 0.13766181
1.5756652 2.7625077 0.13766181
1.4326597 2.9023268 0.13766181
1.2896543 3.042146 0.13766181
1.1466486 3.1819654 0.13766181
1.0036432 3.3217845 0.13766181
0.86063761 3.4616036 0.13766181
0.71763206 3.601423 0.13766181
0.57462651 3.7412422 0.13766181
0.4316211 3.8810613 0.13766181
0.28861552 4.0208807 0.13766181
0.14560997 4.1606998 0.13766181
0.0026044142 4.300519 0.13766181
-0.14040115 4.4403386 0.13766181
-0.28340656 4.5801578 0.13766181
-0.42641211 4.7199769 0.13766181
-0.56941766 4.859796 0.13766181
-0.71242309 4.9996152 0.13766181
-0.85542881 5.1394348 0.13766181
-0.99843419 5.279254 0.13766181
-1.1414399 5.4190731 0.13766181
-1.2844453 5.5588923 0.13766181
-1.4274507 5.6987114 0.13766181
-1.5704564 5.838531 0.13766181
-1.7134619 5.9783502 0.13766181
-1.8564676 6.1181693 0.13766181
2.2906928 2.0634115 0.13766181
2.2906928 2.0634115 0.3376618
2.2906928 2.0634115 0.53766179
2.2906928 2.0634115 0.73766184
2.2906928 2.0634115 0.93766183
2.2906928 2.0634115 1.1376618
2.2906928 2.0634115 1.3376619
2.2906928 2.0634115 1.5376618
2.2906928 2.0634115 1.7376618
2.2906928 2.0634115 1.9376618
2.2906928 2.0634115 2.1376617
2.2906928 2.0634115 2.3376617
2.2906928 2.0634115 2.5376618
2.2906928 2.0634115 2.7376616
2.2906928 2.0634115 2.9376616
2.2906928 2.0634115 3.1376617
2.2906928 2.0634115 3.3376617
2.2906928 2.0634115 3.5376618
2.2906928 2.0634115 3.7376616
2.2906928 2.0634115 3.9376616
2.2906928 2.0634115 4.1376619
2.2906928 2.0634115 4.3376617
2.2906928 2.0634115 4.537662
2.2906928 2.0634115 4.7376618
2.2906928 2.0634115 4.9376621
2.2906928 2.0634115 5.1376619
2.2906928 2.0634115 5.3376617
2.2906928 2.0634115 5.537662
2.2906928 2.0634115 5.7376618
2.2906928 2.0634115 5.9376621
2.2906928 2.0634115 6.1376619
2.2906928 2.0634115 6.3376617
2.2906928 2.0634115 6.537662
2.2906928 2.0634115 6.7376618
2.2906928 2.0634115 6.9376621
2.2906928 2.0634115 7.1376619
2.2906928 2.0634115 7.3376617
2.2906928 2.0634115 7.537662
2.2906928 2.0634115 7.7376618
2.2906928 2.0634115 7.9376621
2.2906928 2.0634115 8.1376619
2.2906928 2.0634115 8.3376617
2.2906928 2.0634115 8.5376616
2.2906928 2.0634115 8.7376623
2.2906928 2.0634115 8.9376621
0.47304291 0.20433958 0.13766181
0.61286217 0.34734511 0.13766181
0.75268137 0.49035063 0.13766181
0.89250064 0.63335621 0.13766181
1.0323199 0.7763617 0.13766181
1.172139 0.91936725 0.13766181
1.3119583 1.0623728 0.13766181
1.4517776 1.2053783 0.13766181
1.5915968 1.3483838 0.13766181
1.731416 1.4913893 0.13766181
1.8712353 1.6343949 0.13766181
2.0110545 1.7774004 0.13766181
2.1508739 1.920406 0.13766181
2.2906928 2.0634115 0.13766181
2.4305122 2.2064168 0.13766181
2.4305122 2.2064168 0.13766181
2.2875066 2.3462362 0.13766181
2.1445012 2.4860554 0.13766181
2.0014956 2.6258748 0.13766181
1.8584901 2.7656939 0.13766181
1.7154845 2.905513 0.13766181
1.572479 3.0453324 0.13766181
1.4294735 3.1851516 0.13766181
1.2864679 3.324971 0.13766181
1.1434624 3.4647901 0.13766181
1.0004569 3.6046093 0.13766181
0.85745132 3.7444286 0.13766181
0.71444577 3.8842478 0.13766181
0.5714404 4.0240669 0.13766181
0.42843482 4.1638861 0.13766181
0.28542924 4.3037057 0.13766181
0.14242369 4.4435248 0.13766181
-0.00058187923 4.583344 0.13766181
-0.14358728 4.7231631 0.13766181
-0.28659284 4.8629823 0.13766181
-0.42959839 5.0028019 0.13766181
-0.57260376 5.1426206 0.13766181
-0.71560955 5.2824402 0.13766181
-0.85861492 5.4222593 0.13766181
-1.0016207 5.562079 0.13766181
-1.144626 5.7018976 0.13766181
-1.2876314 5.8417168 0.13766181
-1.4306371 5.9815364 0.13766181
-1.5736426 6.1213555 0.13766181
-1.7166483 6.2611752 0.13766181
2.4305122 2.2064168 0.13766181
2.4305122 2.2064168 0.3376618
2.4305122 2.2064168 0.53766179
2.4305122 2.2064168 0.73766184
2.4305122 2.2064168 0.93766183
2.4305122 2.2064168 1.1376618
2.4305122 2.2064168 1.3376619
2.4305122 2.2064168 1.5376618
2.4305122 2.2064168 1.7376618
2.4305122 2.2064168 1.9376618
2.4305122 2.2064168 2.1376617
2.4305122 2.2064168 2.3376617
2.4305122 2.2064168 2.5376618
2.4305122 2.2064168 2.7376616
2.4305122 2.2064168 2.9376616
2.4305122 2.2064168 3.1376617
2.4305122 2.2064168 3.3376617
2.4305122 2.2064168 3.5376618
2.4305122 2.2064168 3.7376616
2.4305122 2.2064168 3.9376616
2.4305122 2.2064168 4.1376619
2.4305122 2.2064168 4.3376617
2.4305122 2.2064168 4.537662
2.4305122 2.2064168 4.7376618
2.4305122 2.2064168 4.9376621
2.4305122 2.2064168 5.1376619
2.4305122 2.2064168 5.3376617
2.4305122 2.2064168 5.537662
2.4305122 2.2064168 5.7376618
2.4305122 2.2064168 5.9376621
2.4305122 2.2064168 6.1376619
2.4305122 2.2064168 6.3376617
2.4305122 2.2064168 6.537662
2.4305122 2.2064168 6.7376618
2.4305122 2.2064168 6.9376621
2.4305122 2.2064168 7.1376619
2.4305122 2.2064168 7.3376617
2.4305122 2.2064168 7.537662
2.4305122 2.2064168 7.7376618
2.4305122 2.2064168 7.9376621
2.4305122 2.2064168 8.1376619
2.4305122 2.2064168 8.3376617
2.4305122 2.2064168 8.5376616
2.4305122 2.2064168 8.7376623
2.4305122 2.2064168 8.9376621
0.47304291 0.20433958 0.13766181
0.33003739 0.34415883 0.13766181
0.18703185 0.48397806 0.13766181
0.0440263 0.6237973 0.13766181
-0.09897922 0.76361656 0.13766181
-0.24198474 0.90343577 0.13766181
-0.3849903 1.0432551 0.13766181
-0.52799577 1.1830742 0.13766181
-0.67100132 1.3228935 0.13766181
-0.81400681 1.4627126 0.13766181
-0.95701236 1.6025319 0.13766181
-1.1000179 1.7423512 0.13766181
-1.2430235 1.8821704 0.13766181
-1.3860289 2.0219896 0.13766181
-1.5290345 2.161809 0.13766181
-1.67204 2.3016281 0.13766181
-1.8150456 2.4414475 0.13766181
-1.9580512 2.5812666 0.13766181
-2.1010566 2.7210858 0.13766181
-2.2440622 2.8609049 0.13766181
-2.3870676 3.0007243 0.13766181
-2.5300732 3.1405435 0.13766181
-2.6730788 3.2803628 0.13766181
-2.8160841 3.420182 0.13766181
-2.95909 3.5600014 0.13766181
-3.1020954 3.6998205 0.13766181
-3.2451007 3.8396397 0.13766181
-3.3881063 3.979459 0.13766181
-3.5311117 4.119278 0.13766181
-3.6741176 4.2590976 0.13766181
0.47304291 0.20433958 0.13766181
0.47304291 0.20433958 0.3376618
0.47304291 0.20433958 0.53766179
0.47304291 0.20433958 0.73766184
0.47304291 0.20433958 0.93766183
0.47304291 0.20433958 1.1376618
0.47304291 0.20433958 1.3376619
0.47304291 0.20433958 1.5376618
0.47304291 0.20433958 1.7376618
0.47304291 0.20433958 1.9376618
0.47304291 0.20433958 2.1376617
0.47304291 0.20433958 2.3376617
0.47304291 0.20433958 2.5376618
0.47304291 0.20433958 2.7376616
0.47304291 0.20433958 2.9376616
0.47304291 0.20433958 3.1376617
0.47304291 0.20433958 3.3376617
0.47304291 0.20433958 3.5376618
0.47304291 0.20433958 3.7376616
0.47304291 0.20433958 3.9376616
0.47304291 0.20433958 4.1376619
0.47304291 0.20433958 4.3376617
0.47304291 0.20433958 4.537662
0.47304291 0.20433958 4.7376618
0.47304291 0.20433958 4.9376621
0.47304291 0.20433958 5.1376619
0.47304291 0.20433958 5.3376617
0.47304291 0.20433958 5.537662
0.47304291 0.20433958 5.7376618
0.47304291 0.20433958 5.9376621
0.47304291 0.20433958 6.1376619
0.47304291 0.20433958 6.3376617
0.47304291 0.20433958 6.537662
0.47304291 0.20433958 6.7376618
0.47304291 0.20433958 6.9376621
0.47304291 0.20433958 7.1376619
0.47304291 0.20433958 7.3376617
0.47304291 0.20433958 7.537662
0.47304291 0.20433958 7.7376618
0.47304291 0.20433958 7.9376621
0.47304291 0.20433958 8.1376619
0.47304291 0.20433958 8.3376617
0.47304291 0.20433958 8.5376616
0.47304291 0.20433958 8.7376623
0.47304291 0.20433958 8.9376621
0.47304291 0.20433958 0.13766181
0.33003739 0.34415883 0.13766181
0.18703185 0.48397806 0.13766181
0.0440263 0.6237973 0.13766181
-0.09897922 0.76361656 0.13766181
-0.24198474 0.90343577 0.13766181
-0.3849903 1.0432551 0.13766181
-0.52799577 1.1830742 0.13766181
-0.67100132 1.3228935 0.13766181
-0.81400681 1.4627126 0.13766181
-0.95701236 1.6025319 0.13766181
-1.1000179 1.7423512 0.13766181
-1.2430235 1.8821704 0.13766181
-1.3860289 2.0219896 0.13766181
-1.5290345 2.161809 0.13766181
-1.67204 2.3016281 0.13766181
-1.8150456 2.4414475 0.13766181
-1.9580512 2.5812666 0.13766181
-2.1010566 2.7210858 0.13766181
-2.2440622 2.8609049 0.13766181
-2.3870676 3.0007243 0.13766181
-2.5300732 3.1405435 0.13766181
-2.6730788 3.2803628 0.13766181
-2.8160841 3.420182 0.13766181
-2.95909 3.5600014 0.13766181
-3.1020954 3.6998205 0.13766181
-3.2451007 3.8396397 0.13766181
-3.3881063 3.979459 0.13766181
-3.5311117 4.119278 0.13766181
-3.6741176 4.2590976 0.13766181
0.33003739 0.34415883 0.13766181
0.33003739 0.34415883 0.3376618
0.33003739 0.34415883 0.53766179
0.33003739 0.34415883 0.73766184
0.33003739 0.34415883 0.93766183
0.33003739 0.34415883 1.1376618
0.33003739 0.34415883 1.3376619
0.33003739 0.34415883 1.5376618
0.33003739 0.34415883 1.7376618
0.33003739 0.34415883 1.9376618
0.33003739 0.34415883 2.1376617
0.33003739 0.34415883 2.3376617
0.33003739 0.34415883 2.5376618
0.33003739 0.34415883 2.7376616
0.33003739 0.34415883 2.9376616
0.33003739 0.34415883 3.1376617
0.33003739 0.34415883 3.3376617
0.33003739 0.34415883 3.5376618
0.33003739 0.34415883 3.7376616
0.33003739 0.34415883 3.9376616
0.33003739 0.34415883 4.1376619
0.33003739 0.34415883 4.3376617
0.33003739 0.34415883 4.537662
0.33003739 0.34415883 4.7376618
0.33003739 0.34415883 4.9376621
0.33003739 0.34415883 5.1376619
0.33003739 0.34415883 5.3376617
0.33003739 0.34415883 5.537662
0.33003739 0.34415883 5.7376618
0.33003739 0.34415883 5.9376621
0.33003739 0.34415883 6.1376619
0.33003739 0.34415883 6.3376617
0.33003739 0.34415883 6.537662
0.33003739 0.34415883 6.7376618
0.33003739 0.34415883 6.9376621
0.33003739 0.34415883 7.1376619
0.33003739 0.34415883 7.3376617
0.33003739 0.34415883 7.537662
0.33003739 0.34415883 7.7376618
0.33003739 0.34415883 7.9376621
0.33003739 0.34415883 8.1376619
0.33003739 0.34415883 8.3376617
0.33003739 0.34415883 8.5376616
0.33003739 0.34415883 8.7376623
0.33003739 0.34415883 8.9376621
0.47304291 0.20433958 0.13766181
0.33003739 0.34415883 0.13766181
0.18703185 0.48397806 0.13766181
0.0440263 0.6237973 0.13766181
-0.09897922 0.76361656 0.13766181
-0.24198474 0.90343577 0.13766181
-0.3849903 1.0432551 0.13766181
-0.52799577 1.1830742 0.13766181
-0.67100132 1.3228935 0.13766181
-0.81400681 1.4627126 0.13766181
-0.95701236 1.6025319 0.13766181
-1.1000179 1.7423512 0.13766181
-1.2430235 1.8821704 0.13766181
-1.3860289 2.0219896 0.13766181
-1.5290345 2.161809 0.13766181
-1.67204 2.3016281 0.13766181
-1.8150456 2.4414475 0.13766181
-1.9580512 2.5812666 0.13766181
-2.1010566 2.7210858 0.13766181
-2.2440622 2.8609049 0.13766181
-2.3870676 3.0007243 0.13766181
-2.5300732 3.1405435 0.13766181
-2.6730788 3.2803628 0.13766181
-2.8160841 3.420182 0.13766181
-2.95909 3.5600014 0.13766181
-3.1020954 3.6998205 0.13766181
-3.2451007 3.8396397 0.13766181
-3.3881063 3.979459 0.13766181
-3.5311117 4.119278 0.13766181
-3.6741176 4.2590976 0.13766181
0.18703185 0.48397806 0.13766181
0.18703185 0.48397806 0.3376618
0.18703185 0.48397806 0.53766179
0.18703185 0.48397806 0.73766184
0.18703185 0.48397806 0.93766183
0.18703185 0.48397806 1.1376618
0.18703185 0.48397806 1.3376619
0.18703185 0.48397806 1.5376618
0.18703185 0.48397806 1.7376618
0.18703185 0.48397806 1.9376618
0.18703185 0.48397806 2.1376617
0.18703185 0.48397806 2.3376617
0.18703185 0.48397806 2.5376618
0.18703185 0.48397806 2.7376616
0.18703185 0.48397806 2.9376616
0.18703185 0.48397806 3.1376617
0.18703185 0.48397806 3.3376617
0.18703185 0.48397806 3.5376618
0.18703185 0.48397806 3.7376616
0.18703185 0.48397806 3.9376616
0.18703185 0.48397806 4.1376619
0.18703185 0.48397806 4.3376617
0.18703185 0.48397806 4.537662
0.18703185 0.48397806 4.7376618
0.18703185 0.48397806 4.9376621
0.18703185 0.48397806 5.1376619
0.18703185 0.48397806 5.3376617
0.18703185 0.48397806 5.537662
0.18703185 0.48397806 5.7376618
0.18703185 0.48397806 5.9376621
0.18703185 0.48397806 6.1376619
0.18703185 0.48397806 6.3376617
0.18703185 0.48397806 6.537662
0.18703185 0.48397806 6.7376618
0.18703185 0.48397806 6.9376621
0.18703185 0.48397806 7.1376619
0.18703185 0.48397806 7.3376617
0.18703185 0.48397806 7.537662
0.18703185 0.48397806 7.7376618
0.18703185 0.48397806 7.9376621
0.18703185 0.48397806 8.1376619
0.18703185 0.48397806 8.3376617
0.18703185 0.48397806 8.5376616
0.18703185 0.48397806 8.7376623
0.18703185 0.48397806 8.9376621
0.47304291 0.20433958 0.13766181
0.33003739 0.34415883 0.13766181
0.18703185 0.48397806 0.13766181
0.0440263 0.6237973 0.13766181
-0.09897922 0.76361656 0.13766181
-0.24198474 0.90343577 0.13766181
-0.3849903 1.0432551 0.13766181
-0.52799577 1.1830742 0.13766181
-0.67100132 1.3228935 0.13766181
-0.81400681 1.4627126 0.13766181
-0.95701236 1.6025319 0.13766181
-1.1000179 1.7423512 0.13766181
-1.2430235 1.8821704 0.13766181
-1.3860289 2.0219896 0.13766181
-1.5290345 2.161809 0.13766181
-1.67204 2.3016281 0.13766181
-1.8150456 2.4414475 0.13766181
-1.9580512 2.5812666 0.13766181
-2.1010566 2.7210858 0.13766181
-2.2440622 2.8609049 0.13766181
-2.3870676 3.0007243 0.13766181
-2.5300732 3.1405435 0.13766181
-2.6730788 3.2803628 0.13766181
-2.8160841 3.420182 0.13766181
-2.95909 3.5600014 0.13766181
-3.1020954 3.6998205 0.13766181
-3.2451007 3.8396397 0.13766181
-3.3881063 3.979459 0.13766181
-3.5311117 4.119278 0.13766181
-3.6741176 4.2590976 0.13766181
0.0440263 0.6237973 0.13766181
0.0440263 0.6237973 0.3376618
0.0440263 0.6237973 0.53766179
0.0440263 0.6237973 0.73766184
0.0440263 0.6237973 0.93766183
0.0440263 0.6237973 1.1376618
0.0440263 0.6237973 1.3376619
0.0440263 0.6237973 1.5376618
0.0440263 0.6237973 1.7376618
0.0440263 0.6237973 1.9376618
0.0440263 0.6237973 2.1376617
0.0440263 0.6237973 2.3376617
0.0440263 0.6237973 2.5376618
0.0440263 0.6237973 2.7376616
0.0440263 0.6237973 2.9376616
0.0440263 0.6237973 3.1376617
0.0440263 0.6237973 3.3376617
0.0440263 0.6237973 3.5376618
0.0440263 0.6237973 3.7376616
0.0440263 0.6237973 3.9376616
0.0440263 0.6237973 4.1376619
0.0440263 0.6237973 4.3376617
0.0440263 0.6237973 4.537662
0.0440263 0.6237973 4.7376618
0.0440263 0.6237973 4.9376621
0.0440263 0.6237973 5.1376619
0.0440263 0.6237973 5.3376617
0.0440263 0.6237973 5.537662
0.0440263 0.6237973 5.7376618
0.0440263 0.6237973 5.9376621
0.0440263 0.6237973 6.1376619
0.0440263 0.6237973 6.3376617
0.0440263 0.6237973 6.537662
0.0440263 0.6237973 6.7376618
0.0440263 0.6237973 6.9376621
0.0440263 0.6237973 7.1376619
0.0440263 0.6237973 7.3376617
0.0440263 0.6237973 7.537662
0.0440263 0.6237973 7.7376618
0.0440263 0.6237973 7.9376621
0.0440263 0.6237973 8.1376619
0.0440263 0.6237973 8.3376617
0.0440263 0.6237973 8.5376616
0.0440263 0.6237973 8.7376623
0.0440263 0.6237973 8.9376621
0.47304291 0.20433958 0.13766181
0.33003739 0.34415883 0.13766181
0.18703185 0.48397806 0.13766181
0.0440263 0.6237973 0.13766181
-0.09897922 0.76361656 0.13766181
-0.24198474 0.90343577 0.13766181
-0.3849903 1.0432551 0.13766181
-0.52799577 1.1830742 0.13766181
-0.67100132 1.3228935 0.13766181
-0.81400681 1.4627126 0.13766181
-0.95701236 1.6025319 0.13766181
-1.1000179 1.7423512 0.13766181
-1.2430235 1.8821704 0.13766181
-1.3860289 2.0219896 0.13766181
-1.5290345 2.161809 0.13766181
-1.67204 2.3016281 0.13766181
-1.8150456 2.4414475 0.13766181
-1.9580512 2.5812666 0.13766181
-2.1010566 2.7210858 0.13766181
-2.2440622 2.8609049 0.13766181
-2.3870676 3.0007243 0.13766181
-2.5300732 3.1405435 0.13766181
-2.6730788 3.2803628 0.13766181
-2.8160841 3.420182 0.13766181
-2.95909 3.5600014 0.13766181
-3.1020954 3.6998205 0.13766181
-3.2451007 3.8396397 0.13766181
-3.3881063 3.979459 0.13766181
-3.5311117 4.119278 0.13766181
-3.6741176 4.2590976 0.13766181
-0.09897922 0.76361656 0.13766181
-0.09897922 0.76361656 0.3376618
-0.09897922 0.76361656 0.53766179
-0.09897922 0.76361656 0.73766184
-0.09897922 0.76361656 0.93766183
-0.09897922 0.76361656 1.1376618
-0.09897922 0.76361656 1.3376619
-0.09897922 0.76361656 1.5376618
-0.09897922 0.76361656 1.7376618
-0.09897922 0.76361656 1.9376618
-0.09897922 0.76361656 2.1376617
-0.09897922 0.76361656 2.3376617
-0.09897922 0.76361656 2.5376618
-0.09897922 0.76361656 2.7376616
-0.09897922 0.76361656 2.9376616
-0.09897922 0.76361656 3.1376617
-0.09897922 0.76361656 3.3376617
-0.09897922 0.76361656 3.5376618
-0.09897922 0.76361656 3.7376616
-0.09897922 0.76361656 3.9376616
-0.09897922 0.76361656 4.1376619
-0.09897922 0.76361656 4.3376617
-0.09897922 0.76361656 4.537662
-0.09897922 0.76361656 4.7376618
-0.09897922 0.76361656 4.9376621
-0.09897922 0.76361656 5.1376619
-0.09897922 0.76361656 5.3376617
-0.09897922 0.76361656 5.537662
-0.09897922 0.76361656 5.7376618
-0.09897922 0.76361656 5.9376621
-0.09897922 0.76361656 6.1376619
-0.09897922 0.76361656 6.3376617
-0.09897922 0.76361656 6.537662
-0.09897922 0.76361656 6.7376618
-0.09897922 0.76361656 6.9376621
-0.09897922 0.76361656 7.1376619
-0.09897922 0.76361656 7.3376617
-0.09897922 0.76361656 7.537662
-0.09897922 0.76361656 7.7376618
-0.09897922 0.76361656 7.9376621
-0.09897922 0.76361656 8.1376619
-0.09897922 0.76361656 8.3376617
-0.09897922 0.76361656 8.5376616
-0.09897922 0.76361656 8.7376623
-0.09897922 0.76361656 8.9376621
0.47304291 0.20433958 0.13766181
0.33003739 0.34415883 0.13766181
0.18703185 0.48397806 0.13766181
0.0440263 0.6237973 0.13766181
-0.09897922 0.76361656 0.13766181
-0.24198474 0.90343577 0.13766181
-0.3849903 1.0432551 0.13766181
-0.52799577 1.1830742 0.13766181
-0.67100132 1.3228935 0.13766181
-0.81400681 1.4627126 0.13766181
-0.95701236 1.6025319 0.13766181
-1.1000179 1.7423512 0.13766181
-1.2430235 1.8821704 0.13766181
-1.3860289 2.0219896 0.13766181
-1.5290345 2.161809 0.13766181
-1.67204 2.3016281 0.13766181
-1.8150456 2.4414475 0.13766181
-1.9580512 2.5812666 0.13766181
-2.1010566 2.7210858 0.13766181
-2.2440622 2.8609049 0.13766181
-2.3870676 3.0007243 0.13766181
-2.5300732 3.1405435 0.13766181
-2.6730788 3.2803628 0.13766181
-2.8160841 3.420182 0.13766181
-2.95909 3.5600014 0.13766181
-3.1020954 3.6998205 0.13766181
-3.2451007 3.8396397 0.13766181
-3.3881063 3.979459 0.13766181
-3.5311117 4.119278 0.13766181
-3.6741176 4.2590976 0.13766181
-0.24198474 0.90343577 0.13766181
-0.24198474 0.90343577 0.3376618
-0.24198474 0.90343577 0.53766179
-0.24198474 0.90343577 0.73766184
-0.24198474 0.90343577 0.93766183
-0.24198474 0.90343577 1.1376618
-0.24198474 0.90343577 1.3376619
-0.24198474 0.90343577 1.5376618
-0.24198474 0.90343577 1.7376618
-0.24198474 0.90343577 1.9376618
-0.24198474 0.90343577 2.1376617
-0.24198474 0.90343577 2.3376617
-0.24198474 0.90343577 2.5376618
-0.24198474 0.90343577 2.7376616
-0.24198474 0.90343577 2.9376616
-0.24198474 0.90343577 3.1376617
-0.24198474 0.90343577 3.3376617
-0.24198474 0.90343577 3.5376618
-0.24198474 0.90343577 3.7376616
-0.24198474 0.90343577 3.9376616
-0.24198474 0.90343577 4.1376619
-0.24198474 0.90343577 4.3376617
-0.24198474 0.90343577 4.537662
-0.24198474 0.90343577 4.7376618
-0.24198474 0.90343577 4.9376621
-0.24198474 0.90343577 5.1376619
-0.24198474 0.90343577 5.3376617
-0.24198474 0.90343577 5.537662
-0.24198474 0.90343577 5.7376618
-0.24198474 0.90343577 5.9376621
-0.24198474 0.90343577 6.1376619
-0.24198474 0.90343577 6.3376617
-0.24198474 0.90343577 6.537662
-0.24198474 0.90343577 6.7376618
-0.24198474 0.90343577 6.9376621
-0.24198474 0.90343577 7.1376619
-0.24198474 0.90343577 7.3376617
-0.24198474 0.90343577 7.537662
-0.24198474 0.90343577 7.7376618
-0.24198474 0.90343577 7.9376621
-0.24198474 0.90343577 8.1376619
-0.24198474 0.90343577 8.3376617
-0.24198474 0.90343577 8.5376616
-0.24198474 0.90343577 8.7376623
-0.24198474 0.90343577 8.9376621
0.47304291 0.20433958 0.13766181
0.33003739 0.34415883 0.13766181
0.18703185 0.48397806 0.13766181
0.0440263 0.6237973 0.13766181
-0.09897922 0.76361656 0.13766181
-0.24198474 0.90343577 0.13766181
-0.3849903 1.0432551 0.13766181
-0.52799577 1.1830742 0.13766181
-0.67100132 1.3228935 0.13766181
-0.81400681 1.4627126 0.13766181
-0.95701236 1.6025319 0.13766181
-1.1000179 1.7423512 0.13766181
-1.2430235 1.8821704 0.13766181
-1.3860289 2.0219896 0.13766181
-1.5290345 2.161809 0.13766181
-1.67204 2.3016281 0.13766181
-1.8150456 2.4414475 0.13766181
-1.9580512 2.5812666 0.13766181
-2.1010566 2.7210858 0.13766181
-2.2440622 2.8609049 0.13766181
-2.3870676 3.0007243 0.13766181
-2.5300732 3.1405435 0.13766181
-2.6730788 3.2803628 0.13766181
-2.8160841 3.420182 0.13766181
-2.95909 3.5600014 0.13766181
-3.1020954 3.6998205 0.13766181
-3.2451007 3.8396397 0.13766181
-3.3881063 3.979459 0.13766181
-3.5311117 4.119278 0.13766181
-3.6741176 4.2590976 0.13766181
-0.3849903 1.0432551 0.13766181
-0.3849903 1.0432551 0.3376618
-0.3849903 1.0432551 0.53766179
-0.3849903 1.0432551 0.73766184
-0.3849903 1.0432551 0.93766183
-0.3849903 1.0432551 1.1376618
-0.3849903 1.0432551 1.3376619
-0.3849903 1.0432551 1.5376618
-0.3849903 1.0432551 1.7376618
-0.3849903 1.0432551 1.9376618
-0.3849903 1.0432551 2.1376617
-0.3849903 1.0432551 2.3376617
-0.3849903 1.0432551 2.5376618
-0.3849903 1.0432551 2.7376616
-0.3849903 1.0432551 2.9376616
-0.3849903 1.0432551 3.1376617
-0.3849903 1.0432551 3.3376617
-0.3849903 1.0432551 3.5376618
-0.3849903 1.0432551 3.7376616
-0.3849903 1.0432551 3.9376616
-0.3849903 1.0432551 4.1376619
-0.3849903 1.0432551 4.3376617
-0.3849903 1.0432551 4.537662
-0.3849903 1.0432551 4.7376618
-0.3849903 1.0432551 4.9376621
-0.3849903 1.0432551 5.1376619
-0.3849903 1.0432551 5.3376617
-0.3849903 1.0432551 5.537662
-0.3849903 1.0432551 5.7376618
-0.3849903 1.0432551 5.9376621
-0.3849903 1.0432551 6.1376619
-0.3849903 1.0432551 6.3376617
-0.3849903 1.0432551 6.537662
-0.3849903 1.0432551 6.7376618
-0.3849903 1.0432551 6.9376621
-0.3849903 1.0432551 7.1376619
-0.3849903 1.0432551 7.3376617
-0.3849903 1.0432551 7.537662
-0.3849903 1.0432551 7.7376618
-0.3849903 1.0432551 7.9376621
-0.3849903 1.0432551 8.1376619
-0.3849903 1.0432551 8.3376617
-0.3849903 1.0432551 8.5376616
-0.3849903 1.0432551 8.7376623
-0.3849903 1.0432551 8.9376621
0.47304291 0.20433958 0.13766181
0.33003739 0.34415883 0.13766181
0.18703185 0.48397806 0.13766181
0.0440263 0.6237973 0.13766181
-0.09897922 0.76361656 0.13766181
-0.24198474 0.90343577 0.13766181
-0.3849903 1.0432551 0.13766181
-0.52799577 1.1830742 0.13766181
-0.67100132 1.3228935 0.13766181
-0.81400681 1.4627126 0.13766181
-0.95701236 1.6025319 0.13766181
-1.1000179 1.7423512 0.13766181
-1.2430235 1.8821704 0.13766181
-1.3860289 2.0219896 0.13766181
-1.5290345 2.161809 0.13766181
-1.67204 2.3016281 0.13766181
-1.8150456 2.4414475 0.13766181
-1.9580512 2.5812666 0.13766181
-2.1010566 2.7210858 0.13766181
-2.2440622 2.8609049 0.13766181
-2.3870676 3.0007243 0.13766181
-2.5300732 3.1405435 0.13766181
-2.6730788 3.2803628 0.13766181
-2.8160841 3.420182 0.13766181
-2.95909 3.5600014 0.13766181
-3.1020954 3.6998205 0.13766181
-3.2451007 3.8396397 0.13766181
-3.3881063 3.979459 0.13766181
-3.5311117 4.119278 0.13766181
-3.6741176 4.2590976 0.13766181
-0.52799577 1.1830742 0.13766181
-0.52799577 1.1830742 0.3376618
-0.52799577 1.1830742 0.53766179
-0.52799577 1.1830742 0.73766184
-0.52799577 1.1830742 0.93766183
-0.52799577 1.1830742 1.1376618
-0.52799577 1.1830742 1.3376619
-0.52799577 1.1830742 1.5376618
-0.52799577 1.1830742 1.7376618
-0.52799577 1.1830742 1.9376618
-0.52799577 1.1830742 2.1376617
-0.52799577 1.1830742 2.3376617
-0.52799577 1.1830742 2.5376618
-0.52799577 1.1830742 2.7376616
-0.52799577 1.1830742 2.9376616
-0.52799577 1.1830742 3.1376617
-0.52799577 1.1830742 3.3376617
-0.52799577 1.1830742 3.5376618
-0.52799577 1.1830742 3.7376616
-0.52799577 1.1830742 3.9376616
-0.52799577 1.1830742 4.1376619
-0.52799577 1.1830742 4.3376617
-0.52799577 1.1830742 4.537662
-0.52799577 1.1830742 4.7376618
-0.52799577 1.1830742 4.9376621
-0.52799577 1.1830742 5.1376619
-0.52799577 1.1830742 5.3376617
-0.52799577 1.1830742 5.537662
-0.52799577 1.1830742 5.7376618
-0.52799577 1.1830742 5.9376621
-0.52799577 1.1830742 6.1376619
-0.52799577 1.1830742 6.3376617
-0.52799577 1.1830742 6.537662
-0.52799577 1.1830742 6.7376618
-0.52799577 1.1830742 6.9376621
-0.52799577 1.1830742 7.1376619
-0.52799577 1.1830742 7.3376617
-0.52799577 1.1830742 7.537662
-0.52799577 1.1830742 7.7376618
-0.52799577 1.1830742 7.9376621
-0.52799577 1.1830742 8.1376619
-0.52799577 1.1830742 8.3376617
-0.52799577 1.1830742 8.5376616
-0.52799577 1.1830742 8.7376623
-0.52799577 1.1830742 8.9376621
0.47304291 0.20433958 0.13766181
0.33003739 0.34415883 0.13766181
0.18703185 0.48397806 0.13766181
0.0440263 0.6237973 0.13766181
-0.09897922 0.76361656 0.13766181
-0.24198474 0.90343577 0.13766181
-0.3849903 1.0432551 0.13766181
-0.52799577 1.1830742 0.13766181
-0.67100132 1.3228935 0.13766181
-0.81400681 1.4627126 0.13766181
-0.95701236 1.6025319 0.13766181
-1.1000179 1.7423512 0.13766181
-1.2430235 1.8821704 0.13766181
-1.3860289 2.0219896 0.13766181
-1.5290345 2.161809 0.13766181
-1.67204 2.3016281 0.13766181
-1.8150456 2.4414475 0.13766181
-1.9580512 2.5812666 0.13766181
-2.1010566 2.7210858 0.13766181
-2.2440622 2.8609049 0.13766181
-2.3870676 3.0007243 0.13766181
-2.5300732 3.1405435 0.13766181
-2.6730788 3.2803628 0.13766181
-2.8160841 3.420182 0.13766181
-2.95909 3.5600014 0.13766181
-3.1020954 3.6998205 0.13766181
-3.2451007 3.8396397 0.13766181
-3.3881063 3.979459 0.13766181
-3.5311117 4.119278 0.13766181
-3.6741176 4.2590976 0.13766181
-0.67100132 1.3228935 0.13766181
-0.67100132 1.3228935 0.3376618
-0.67100132 1.3228935 0.53766179
-0.67100132 1.3228935 0.73766184
-0.67100132 1.3228935 0.93766183
-0.67100132 1.3228935 1.1376618
-0.67100132 1.3228935 1.3376619
-0.67100132 1.3228935 1.5376618
-0.67100132 1.3228935 1.7376618
-0.67100132 1.3228935 1.9376618
-0.67100132 1.3228935 2.1376617
-0.67100132 1.3228935 2.3376617
-0.67100132 1.3228935 2.5376618
-0.67100132 1.3228935 2.7376616
-0.67100132 1.3228935 2.9376616
-0.67100132 1.3228935 3.1376617
-0.67100132 1.3228935 3.3376617
-0.67100132 1.3228935 3.5376618
-0.67100132 1.3228935 3.7376616
-0.67100132 1.3228935 3.9376616
-0.67100132 1.3228935 4.1376619
-0.67100132 1.3228935 4.3376617
-0.67100132 1.3228935 4.537662
-0.67100132 1.3228935 4.7376618
-0.67100132 1.3228935 4.9376621
-0.67100132 1.3228935 5.1376619
-0.67100132 1.3228935 5.3376617
-0.67100132 1.3228935 5.537662
-0.67100132 1.3228935 5.7376618
-0.67100132 1.3228935 5.9376621
-0.67100132 1.3228935 6.1376619
-0.67100132 1.3228935 6.3376617
-0.67100132 1.3228935 6.537662
-0.67100132 1.3228935 6.7376618
-0.67100132 1.3228935 6.9376621
-0.67100132 1.3228935 7.1376619
-0.67100132 1.3228935 7.3376617
-0.67100132 1.3228935 7.537662
-0.67100132 1.3228935 7.7376618
-0.67100132 1.3228935 7.9376621
-0.67100132 1.3228935 8.1376619
-0.67100132 1.3228935 8.3376617
-0.67100132 1.3228935 8.5376616
-0.67100132 1.3228935 8.7376623
-0.67100132 1.3228935 8.9376621
0.47304291 0.20433958 0.13766181
0.33003739 0.34415883 0.13766181
0.18703185 0.48397806 0.13766181
0.0440263 0.6237973 0.13766181
-0.09897922 0.76361656 0.13766181
-0.24198474 0.90343577 0.13766181
-0.3849903 1.0432551 0.13766181
-0.52799577 1.1830742 0.13766181
-0.67100132 1.3228935 0.13766181
-0.81400681 1.4627126 0.13766181
-0.95701236 1.6025319 0.13766181
-1.1000179 1.7423512 0.13766181
-1.2430235 1.8821704 0.13766181
-1.3860289 2.0219896 0.13766181
-1.5290345 2.161809 0.13766181
-1.67204 2.3016281 0.13766181
-1.8150456 2.4414475 0.13766181
-1.9580512 2.5812666 0.13766181
-2.1010566 2.7210858 0.13766181
-2.2440622 2.8609049 0.13766181
-2.3870676 3.0007243 0.13766181
-2.5300732 3.1405435 0.13766181
-2.6730788 3.2803628 0.13766181
-2.8160841 3.420182 0.13766181
-2.95909 3.5600014 0.13766181
-3.1020954 3.6998205 0.13766181
-3.2451007 3.8396397 0.13766181
-3.3881063 3.979459 0.13766181
-3.5311117 4.119278 0.13766181
-3.6741176 4.2590976 0.13766181
-0.81400681 1.4627126 0.13766181
-0.81400681 1.4627126 0.3376618
-0.81400681 1.4627126 0.53766179
-0.81400681 1.4627126 0.73766184
-0.81400681 1.4627126 0.93766183
-0.81400681 1.4627126 1.1376618
-0.81400681 1.4627126 1.3376619
-0.81400681 1.4627126 1.5376618
-0.81400681 1.4627126 1.7376618
-0.81400681 1.4627126 1.9376618
-0.81400681 1.4627126 2.1376617
-0.81400681 1.4627126 2.3376617
-0.81400681 1.4627126 2.5376618
-0.81400681 1.4627126 2.7376616
-0.81400681 1.4627126 2.9376616
-0.81400681 1.4627126 3.1376617
-0.81400681 1.4627126 3.3376617
-0.81400681 1.4627126 3.5376618
-0.81400681 1.4627126 3.7376616
-0.81400681 1.4627126 3.9376616
-0.81400681 1.4627126 4.1376619
-0.81400681 1.4627126 4.3376617
-0.81400681 1.4627126 4.537662
-0.81400681 1.4627126 4.7376618
-0.81400681 1.4627126 4.9376621
-0.81400681 1.4627126 5.1376619
-0.81400681 1.4627126 5.3376617
-0.81400681 1.4627126 5.537662
-0.81400681 1.4627126 5.7376618
-0.81400681 1.4627126 5.9376621
-0.81400681 1.4627126 6.1376619
-0.81400681 1.4627126 6.3376617
-0.81400681 1.4627126 6.537662
-0.81400681 1.4627126 6.7376618
-0.81400681 1.4627126 6.9376621
-0.81400681 1.4627126 7.1376619
-0.81400681 1.4627126 7.3376617
-0.81400681 1.4627126 7.537662
-0.81400681 1.4627126 7.7376618
-0.81400681 1.4627126 7.9376621
-0.81400681 1.4627126 8.1376619
-0.81400681 1.4627126 8.3376617
-0.81400681 1.4627126 8.5376616
-0.81400681 1.4627126 8.7376623
-0.81400681 1.4627126 8.9376621
0.47304291 0.20433958 0.13766181
0.33003739 0.34415883 0.13766181
0.18703185 0.48397806 0.13766181
0.0440263 0.6237973 0.13766181
-0.09897922 0.76361656 0.13766181
-0.24198474 0.90343577 0.13766181
-0.3849903 1.0432551 0.13766181
-0.52799577 1.1830742 0.13766181
-0.67100132 1.3228935 0.13766181
-0.81400681 1.4627126 0.13766181
-0.95701236 1.6025319 0.13766181
-1.1000179 1.7423512 0.13766181
-1.2430235 1.8821704 0.13766181
-1.3860289 2.0219896 0.13766181
-1.5290345 2.161809 0.13766181
-1.67204 2.3016281 0.13766181
-1.8150456 2.4414475 0.13766181
-1.9580512 2.5812666 0.13766181
-2.1010566 2.7210858 0.13766181
-2.2440622 2.8609049 0.13766181
-2.3870676 3.0007243 0.13766181
-2.5300732 3.1405435 0.13766181
-2.6730788 3.2803628 0.13766181
-2.8160841 3.420182 0.13766181
-2.95909 3.5600014 0.13766181
-3.1020954 3.6998205 0.13766181
-3.2451007 3.8396397 0.13766181
-3.3881063 3.979459 0.13766181
-3.5311117 4.119278 0.13766181
-3.6741176 4.2590976 0.13766181
-0.95701236 1.6025319 0.13766181
-0.95701236 1.6025319 0.3376618
-0.95701236 1.6025319 0.53766179
-0.95701236 1.6025319 0.73766184
-0.95701236 1.6025319 0.93766183
-0.95701236 1.6025319 1.1376618
-0.95701236 1.6025319 1.3376619
-0.95701236 1.6025319 1.5376618
-0.95701236 1.6025319 1.7376618
-0.95701236 1.6025319 1.9376618
-0.95701236 1.6025319 2.1376617
-0.95701236 1.6025319 2.3376617
-0.95701236 1.6025319 2.5376618
-0.95701236 1.6025319 2.7376616
-0.95701236 1.6025319 2.9376616
-0.95701236 1.6025319 3.1376617
-0.95701236 1.6025319 3.3376617
