# .PCD v0.7 - Point Cloud Data file format
VERSION 0.7
FIELDS x y z
SIZE 4 4 4
TYPE F F F
COUNT 1 1 1
WIDTH 1491
HEIGHT 1
VIEWPOINT 0 0 0 1 0 0 0
POINTS 1491
DATA ascii
4.2144775 1.7839712 -0.22180164
4.3560224 1.9252694 -0.22180164
4.4975672 2.0665672 -0.22180164
4.639112 2.2078655 -0.22180164
4.7806563 2.3491633 -0.22180164
4.9222007 2.4904611 -0.22180164
5.0637455 2.6317594 -0.22180164
5.2052903 2.7730572 -0.22180164
5.3468351 2.9143553 -0.22180164
1.2420409 -1.1832864 -0.22180164
1.2420409 -1.1832864 -0.021801636
1.2420409 -1.1832864 0.17819837
1.2420409 -1.1832864 0.37819839
1.2420409 -1.1832864 0.57819837
1.2420409 -1.1832864 0.77819836
1.2420409 -1.1832864 0.97819841
1.2420409 -1.1832864 1.1781983
1.2420409 -1.1832864 1.3781984
1.2420409 -1.1832864 1.5781983
1.2420409 -1.1832864 1.7781984
1.2420409 -1.1832864 1.9781984
1.2420409 -1.1832864 2.1781983
1.2420409 -1.1832864 2.3781981
1.2420409 -1.1832864 2.5781982
1.2420409 -1.1832864 2.7781982
1.2420409 -1.1832864 2.9781983
1.2420409 -1.1832864 3.1781983
1.2420409 -1.1832864 3.3781981
1.2420409 -1.1832864 3.5781982
1.2420409 -1.1832864 3.7781982
1.2420409 -1.1832864 3.9781981
1.2420409 -1.1832864 4.1781983
1.2420409 -1.1832864 4.3781981
1.2420409 -1.1832864 4.5781984
1.2420409 -1.1832864 4.7781982
1.2420409 -1.1832864 4.9781981
1.2420409 -1.1832864 5.1781983
1.2420409 -1.1832864 5.3781981
1.2420409 -1.1832864 5.5781984
1.2420409 -1.1832864 5.7781982
1.2420409 -1.1832864 5.9781981
1.2420409 -1.1832864 6.1781983
1.2420409 -1.1832864 6.3781981
1.2420409 -1.1832864 6.5781984
1.2420409 -1.1832864 6.7781982
1.2420409 -1.1832864 6.9781981
1.2420409 -1.1832864 7.1781983
1.2420409 -1.1832864 7.3781981
1.2420409 -1.1832864 7.5781984
1.2420409 -1.1832864 7.7781982
1.2420409 -1.1832864 7.9781981
1.2420409 -1.1832864 8.1781979
1.2420409 -1.1832864 8.3781986
1.2420409 -1.1832864 8.5781984
0.39425296 -0.33401874 -0.22180164
0.53555095 -0.47556335 -0.22180164
0.67684895 -0.61710799 -0.22180164
0.81814694 -0.75865257 -0.22180164
0.95944494 -0.90019721 -0.22180164
1.1007429 -1.0417418 -0.22180164
1.2420409 -1.1832864 -0.22180164
1.3833389 -1.324831 -0.22180164
1.5246369 -1.4663757 -0.22180164
1.6659348 -1.6079202 -0.22180164
1.8072329 -1.7494649 -0.22180164
1.9485309 -1.8910096 -0.22180164
2.089829 -2.0325541 -0.22180164
2.2311268 -2.1740987 -0.22180164
2.3724248 -2.3156433 -0.22180164
1.3833389 -1.324831 -0.22180164
1.5248835 -1.1835331 -0.22180164
1.6664281 -1.042235 -0.22180164
1.8079728 -0.90093702 -0.22180164
1.9495174 -0.75963902 -0.22180164
2.0910618 -0.61834109 -0.22180164
2.2326066 -0.47704303 -0.22180164
2.3741512 -0.3357451 -0.22180164
2.5156958 -0.19444709 -0.22180164
2.6572404 -0.053149141 -0.22180164
2.798785 0.088148884 -0.22180164
2.9403298 0.2294469 -0.22180164
3.0818744 0.37074494 -0.22180164
3.2234187 0.51204276 -0.22180164
3.3649635 0.65334082 -0.22180164
3.5065081 0.79463881 -0.22180164
3.6480527 0.93593687 -0.22180164
3.7895975 1.0772349 -0.22180164
3.9311419 1.2185327 -0.22180164
4.0726867 1.3598307 -0.22180164
4.214231 1.5011288 -0.22180164
4.3557758 1.6424266 -0.22180164
4.4973207 1.7837248 -0.22180164
4.638865 1.9250227 -0.22180164
4.7804098 2.0663209 -0.22180164
4.9219542 2.2076187 -0.22180164
5.0634985 2.3489165 -0.22180164
5.2050433 2.4902148 -0.22180164
5.3465881 2.6315126 -0.22180164
5.488133 2.7728109 -0.22180164
1.3833389 -1.324831 -0.22180164
1.3833389 -1.324831 -0.021801636
1.3833389 -1.324831 0.17819837
1.3833389 -1.324831 0.37819839
1.3833389 -1.324831 0.57819837
1.3833389 -1.324831 0.77819836
1.3833389 -1.324831 0.97819841
1.3833389 -1.324831 1.1781983
1.3833389 -1.324831 1.3781984
1.3833389 -1.324831 1.5781983
1.3833389 -1.324831 1.7781984
1.3833389 -1.324831 1.9781984
1.3833389 -1.324831 2.1781983
1.3833389 -1.324831 2.3781981
1.3833389 -1.324831 2.5781982
1.3833389 -1.324831 2.7781982
1.3833389 -1.324831 2.9781983
1.3833389 -1.324831 3.1781983
1.3833389 -1.324831 3.3781981
1.3833389 -1.324831 3.5781982
1.3833389 -1.324831 3.7781982
1.3833389 -1.324831 3.9781981
1.3833389 -1.324831 4.1781983
1.3833389 -1.324831 4.3781981
1.3833389 -1.324831 4.5781984
1.3833389 -1.324831 4.7781982
1.3833389 -1.324831 4.9781981
1.3833389 -1.324831 5.1781983
1.3833389 -1.324831 5.3781981
1.3833389 -1.324831 5.5781984
1.3833389 -1.324831 5.7781982
1.3833389 -1.324831 5.9781981
1.3833389 -1.324831 6.1781983
1.3833389 -1.324831 6.3781981
1.3833389 -1.324831 6.5781984
1.3833389 -1.324831 6.7781982
1.3833389 -1.324831 6.9781981
1.3833389 -1.324831 7.1781983
1.3833389 -1.324831 7.3781981
1.3833389 -1.324831 7.5781984
1.3833389 -1.324831 7.7781982
1.3833389 -1.324831 7.9781981
1.3833389 -1.324831 8.1781979
1.3833389 -1.324831 8.3781986
1.3833389 -1.324831 8.5781984
0.39425296 -0.33401874 -0.22180164
0.53555095 -0.47556335 -0.22180164
0.67684895 -0.61710799 -0.22180164
0.81814694 -0.75865257 -0.22180164
0.95944494 -0.90019721 -0.22180164
1.1007429 -1.0417418 -0.22180164
1.2420409 -1.1832864 -0.22180164
1.3833389 -1.324831 -0.22180164
1.5246369 -1.4663757 -0.22180164
1.6659348 -1.6079202 -0.22180164
1.8072329 -1.7494649 -0.22180164
1.9485309 -1.8910096 -0.22180164
2.089829 -2.0325541 -0.22180164
2.2311268 -2.1740987 -0.22180164
2.3724248 -2.3156433 -0.22180164
1.5246369 -1.4663757 -0.22180164
1.6661816 -1.3250777 -0.22180164
1.8077261 -1.1837797 -0.22180164
1.9492707 -1.0424817 -0.22180164
2.0908153 -0.90118372 -0.22180164
2.2323599 -0.75988573 -0.22180164
2.3739047 -0.61858767 -0.22180164
2.5154493 -0.47728977 -0.22180164
2.6569939 -0.33599174 -0.22180164
2.7985384 -0.19469379 -0.22180164
2.940083 -0.053395767 -0.22180164
3.0816276 0.087902255 -0.22180164
3.2231724 0.22920027 -0.22180164
3.3647168 0.37049812 -0.22180164
3.5062616 0.51179618 -0.22180164
3.6478062 0.65309417 -0.22180164
3.7893507 0.79439223 -0.22180164
3.9308953 0.93569022 -0.22180164
4.0724397 1.0769881 -0.22180164
4.2139845 1.2182862 -0.22180164
4.3555293 1.3595841 -0.22180164
4.4970737 1.500882 -0.22180164
4.6386185 1.6421802 -0.22180164
4.7801628 1.783478 -0.22180164
4.9217076 1.9247762 -0.22180164
5.0632524 2.0660741 -0.22180164
5.2047968 2.207372 -0.22180164
5.3463416 2.3486702 -0.22180164
5.487886 2.4899681 -0.22180164
5.6294308 2.6312661 -0.22180164
1.5246369 -1.4663757 -0.22180164
1.5246369 -1.4663757 -0.021801636
1.5246369 -1.4663757 0.17819837
1.5246369 -1.4663757 0.37819839
1.5246369 -1.4663757 0.57819837
1.5246369 -1.4663757 0.77819836
1.5246369 -1.4663757 0.97819841
1.5246369 -1.4663757 1.1781983
1.5246369 -1.4663757 1.3781984
1.5246369 -1.4663757 1.5781983
1.5246369 -1.4663757 1.7781984
1.5246369 -1.4663757 1.9781984
1.5246369 -1.4663757 2.1781983
1.5246369 -1.4663757 2.3781981
1.5246369 -1.4663757 2.5781982
1.5246369 -1.4663757 2.7781982
1.5246369 -1.4663757 2.9781983
1.5246369 -1.4663757 3.1781983
1.5246369 -1.4663757 3.3781981
1.5246369 -1.4663757 3.5781982
1.5246369 -1.4663757 3.7781982
1.5246369 -1.4663757 3.9781981
1.5246369 -1.4663757 4.1781983
1.5246369 -1.4663757 4.3781981
1.5246369 -1.4663757 4.5781984
1.5246369 -1.4663757 4.7781982
1.5246369 -1.4663757 4.9781981
1.5246369 -1.4663757 5.1781983
1.5246369 -1.4663757 5.3781981
1.5246369 -1.4663757 5.5781984
1.5246369 -1.4663757 5.7781982
1.5246369 -1.4663757 5.9781981
1.5246369 -1.4663757 6.1781983
1.5246369 -1.4663757 6.3781981
1.5246369 -1.4663757 6.5781984
1.5246369 -1.4663757 6.7781982
1.5246369 -1.4663757 6.9781981
1.5246369 -1.4663757 7.1781983
1.5246369 -1.4663757 7.3781981
1.5246369 -1.4663757 7.5781984
1.5246369 -1.4663757 7.7781982
1.5246369 -1.4663757 7.9781981
1.5246369 -1.4663757 8.1781979
1.5246369 -1.4663757 8.3781986
1.5246369 -1.4663757 8.5781984
0.39425296 -0.33401874 -0.22180164
0.53555095 -0.47556335 -0.22180164
0.67684895 -0.61710799 -0.22180164
0.81814694 -0.75865257 -0.22180164
0.95944494 -0.90019721 -0.22180164
1.1007429 -1.0417418 -0.22180164
1.2420409 -1.1832864 -0.22180164
1.3833389 -1.324831 -0.22180164
1.5246369 -1.4663757 -0.22180164
1.6659348 -1.6079202 -0.22180164
1.8072329 -1.7494649 -0.22180164
1.9485309 -1.8910096 -0.22180164
2.089829 -2.0325541 -0.22180164
2.2311268 -2.1740987 -0.22180164
2.3724248 -2.3156433 -0.22180164
1.6659348 -1.6079202 -0.22180164
1.8074795 -1.4666222 -0.22180164
1.9490241 -1.3253243 -0.22180164
2.0905688 -1.1840262 -0.22180164
2.2321134 -1.0427283 -0.22180164
2.3736579 -0.90143031 -0.22180164
2.5152025 -0.76013225 -0.22180164
2.6567471 -0.61883432 -0.22180164
2.7982917 -0.47753629 -0.22180164
2.9398363 -0.33623835 -0.22180164
3.0813811 -0.19494033 -0.22180164
3.2229257 -0.053642306 -0.22180164
3.3644702 0.087655716 -0.22180164
3.5060148 0.22895357 -0.22180164
3.6475594 0.3702516 -0.22180164
3.789104 0.51154959 -0.22180164
3.9306488 0.65284765 -0.22180164
4.0721931 0.79414564 -0.22180164
4.213738 0.93544352 -0.22180164
4.3552823 1.0767416 -0.22180164
4.4968271 1.2180395 -0.22180164
4.6383715 1.3593374 -0.22180164
4.7799163 1.5006356 -0.22180164
4.9214611 1.6419334 -0.22180164
5.0630059 1.7832316 -0.22180164
5.2045503 1.9245296 -0.22180164
5.3460946 2.0658274 -0.22180164
5.4876394 2.2071257 -0.22180164
5.6291838 2.3484235 -0.22180164
5.7707286 2.4897215 -0.22180164
1.6659348 -1.6079202 -0.22180164
1.6659348 -1.6079202 -0.021801636
1.6659348 -1.6079202 0.17819837
1.6659348 -1.6079202 0.37819839
1.6659348 -1.6079202 0.57819837
1.6659348 -1.6079202 0.77819836
1.6659348 -1.6079202 0.97819841
1.6659348 -1.6079202 1.1781983
1.6659348 -1.6079202 1.3781984
1.6659348 -1.6079202 1.5781983
1.6659348 -1.6079202 1.7781984
1.6659348 -1.6079202 1.9781984
1.6659348 -1.6079202 2.1781983
1.6659348 -1.6079202 2.3781981
1.6659348 -1.6079202 2.5781982
1.6659348 -1.6079202 2.7781982
1.6659348 -1.6079202 2.9781983
1.6659348 -1.6079202 3.1781983
1.6659348 -1.6079202 3.3781981
1.6659348 -1.6079202 3.5781982
1.6659348 -1.6079202 3.7781982
1.6659348 -1.6079202 3.9781981
1.6659348 -1.6079202 4.1781983
1.6659348 -1.6079202 4.3781981
1.6659348 -1.6079202 4.5781984
1.6659348 -1.6079202 4.7781982
1.6659348 -1.6079202 4.9781981
1.6659348 -1.6079202 5.1781983
1.6659348 -1.6079202 5.3781981
1.6659348 -1.6079202 5.5781984
1.6659348 -1.6079202 5.7781982
1.6659348 -1.6079202 5.9781981
1.6659348 -1.6079202 6.1781983
1.6659348 -1.6079202 6.3781981
1.6659348 -1.6079202 6.5781984
1.6659348 -1.6079202 6.7781982
1.6659348 -1.6079202 6.9781981
1.6659348 -1.6079202 7.1781983
1.6659348 -1.6079202 7.3781981
1.6659348 -1.6079202 7.5781984
1.6659348 -1.6079202 7.7781982
1.6659348 -1.6079202 7.9781981
1.6659348 -1.6079202 8.1781979
1.6659348 -1.6079202 8.3781986
1.6659348 -1.6079202 8.5781984
0.39425296 -0.33401874 -0.22180164
0.53555095 -0.47556335 -0.22180164
0.67684895 -0.61710799 -0.22180164
0.81814694 -0.75865257 -0.22180164
0.95944494 -0.90019721 -0.22180164
1.1007429 -1.0417418 -0.22180164
1.2420409 -1.1832864 -0.22180164
1.3833389 -1.324831 -0.22180164
1.5246369 -1.4663757 -0.22180164
1.6659348 -1.6079202 -0.22180164
1.8072329 -1.7494649 -0.22180164
1.9485309 -1.8910096 -0.22180164
2.089829 -2.0325541 -0.22180164
2.2311268 -2.1740987 -0.22180164
2.3724248 -2.3156433 -0.22180164
1.8072329 -1.7494649 -0.22180164
1.9487774 -1.6081669 -0.22180164
2.090322 -1.4668689 -0.22180164
2.2318668 -1.3255709 -0.22180164
2.3734114 -1.1842729 -0.22180164
2.514956 -1.0429749 -0.22180164
2.6565006 -0.90167689 -0.22180164
2.7980452 -0.76037896 -0.22180164
2.9395897 -0.61908096 -0.22180164
3.0811343 -0.47778299 -0.22180164
3.2226789 -0.33648497 -0.22180164
3.3642237 -0.19518696 -0.22180164
3.5057683 -0.053888932 -0.22180164
3.6473129 0.087408923 -0.22180164
3.7888575 0.22870694 -0.22180164
3.930402 0.37000498 -0.22180164
4.0719466 0.51130301 -0.22180164
4.2134914 0.652601 -0.22180164
4.3550358 0.79389888 -0.22180164
4.4965806 0.93519688 -0.22180164
4.6381249 1.0764949 -0.22180164
4.7796698 1.2177927 -0.22180164
4.9212146 1.3590909 -0.22180164
5.0627589 1.5003889 -0.22180164
5.2043037 1.641687 -0.22180164
5.3458481 1.7829849 -0.22180164
5.4873929 1.9242827 -0.22180164
5.6289377 2.0655808 -0.22180164
5.7704821 2.2068787 -0.22180164
5.9120269 2.348177 -0.22180164
1.8072329 -1.7494649 -0.22180164
1.8072329 -1.7494649 -0.021801636
1.8072329 -1.7494649 0.17819837
1.8072329 -1.7494649 0.37819839
1.8072329 -1.7494649 0.57819837
1.8072329 -1.7494649 0.77819836
1.8072329 -1.7494649 0.97819841
1.8072329 -1.7494649 1.1781983
1.8072329 -1.7494649 1.3781984
1.8072329 -1.7494649 1.5781983
1.8072329 -1.7494649 1.7781984
1.8072329 -1.7494649 1.9781984
1.8072329 -1.7494649 2.1781983
1.8072329 -1.7494649 2.3781981
1.8072329 -1.7494649 2.5781982
1.8072329 -1.7494649 2.7781982
1.8072329 -1.7494649 2.9781983
1.8072329 -1.7494649 3.1781983
1.8072329 -1.7494649 3.3781981
1.8072329 -1.7494649 3.5781982
1.8072329 -1.7494649 3.7781982
1.8072329 -1.7494649 3.9781981
1.8072329 -1.7494649 4.1781983
1.8072329 -1.7494649 4.3781981
1.8072329 -1.7494649 4.5781984
1.8072329 -1.7494649 4.7781982
1.8072329 -1.7494649 4.9781981
1.8072329 -1.7494649 5.1781983
1.8072329 -1.7494649 5.3781981
1.8072329 -1.7494649 5.5781984
1.8072329 -1.7494649 5.7781982
1.8072329 -1.7494649 5.9781981
1.8072329 -1.7494649 6.1781983
1.8072329 -1.7494649 6.3781981
1.8072329 -1.7494649 6.5781984
1.8072329 -1.7494649 6.7781982
1.8072329 -1.7494649 6.9781981
1.8072329 -1.7494649 7.1781983
1.8072329 -1.7494649 7.3781981
1.8072329 -1.7494649 7.5781984
1.8072329 -1.7494649 7.7781982
1.8072329 -1.7494649 7.9781981
1.8072329 -1.7494649 8.1781979
1.8072329 -1.7494649 8.3781986
1.8072329 -1.7494649 8.5781984
0.39425296 -0.33401874 -0.22180164
0.53555095 -0.47556335 -0.22180164
0.67684895 -0.61710799 -0.22180164
0.81814694 -0.75865257 -0.22180164
0.95944494 -0.90019721 -0.22180164
1.1007429 -1.0417418 -0.22180164
1.2420409 -1.1832864 -0.22180164
1.3833389 -1.324831 -0.22180164
1.5246369 -1.4663757 -0.22180164
1.6659348 -1.6079202 -0.22180164
1.8072329 -1.7494649 -0.22180164
1.9485309 -1.8910096 -0.22180164
2.089829 -2.0325541 -0.22180164
2.2311268 -2.1740987 -0.22180164
2.3724248 -2.3156433 -0.22180164
1.9485309 -1.8910096 -0.22180164
2.0900755 -1.7497115 -0.22180164
2.2316201 -1.6084136 -0.22180164
2.3731647 -1.4671155 -0.22180164
2.5147092 -1.3258176 -0.22180164
2.6562541 -1.1845195 -0.22180164
2.7977986 -1.0432216 -0.22180164
2.9393432 -0.9019236 -0.22180164
3.0808878 -0.7606256 -0.22180164
3.2224324 -0.61932766 -0.22180164
3.363977 -0.47802964 -0.22180164
3.5055218 -0.33673161 -0.22180164
3.6470664 -0.19543359 -0.22180164
3.7886107 -0.054135729 -0.22180164
3.9301555 0.087162293 -0.22180164
4.0717001 0.22846031 -0.22180164
4.2132449 0.36975834 -0.22180164
4.3547893 0.51105636 -0.22180164
4.4963341 0.65235424 -0.22180164
4.6378784 0.79365224 -0.22180164
4.7794232 0.93495029 -0.22180164
4.9209676 1.0762482 -0.22180164
5.0625124 1.2175463 -0.22180164
5.2040567 1.3588442 -0.22180164
5.3456016 1.5001423 -0.22180164
5.4871464 1.6414403 -0.22180164
5.6286907 1.7827381 -0.22180164
5.7702355 1.9240363 -0.22180164
5.9117799 2.0653341 -0.22180164
6.0533247 2.2066324 -0.22180164
1.9485309 -1.8910096 -0.22180164
1.9485309 -1.8910096 -0.021801636
1.9485309 -1.8910096 0.17819837
1.9485309 -1.8910096 0.37819839
1.9485309 -1.8910096 0.57819837
1.9485309 -1.8910096 0.77819836
1.9485309 -1.8910096 0.97819841
1.9485309 -1.8910096 1.1781983
1.9485309 -1.8910096 1.3781984
1.9485309 -1.8910096 1.5781983
1.9485309 -1.8910096 1.7781984
1.9485309 -1.8910096 1.9781984
1.9485309 -1.8910096 2.1781983
1.9485309 -1.8910096 2.3781981
1.9485309 -1.8910096 2.5781982
1.9485309 -1.8910096 2.7781982
1.9485309 -1.8910096 2.9781983
1.9485309 -1.8910096 3.1781983
1.9485309 -1.8910096 3.3781981
1.9485309 -1.8910096 3.5781982
1.9485309 -1.8910096 3.7781982
1.9485309 -1.8910096 3.9781981
1.9485309 -1.8910096 4.1781983
1.9485309 -1.8910096 4.3781981
1.9485309 -1.8910096 4.5781984
1.9485309 -1.8910096 4.7781982
1.9485309 -1.8910096 4.9781981
1.9485309 -1.8910096 5.1781983
1.9485309 -1.8910096 5.3781981
1.9485309 -1.8910096 5.5781984
1.9485309 -1.8910096 5.7781982
1.9485309 -1.8910096 5.9781981
1.9485309 -1.8910096 6.1781983
1.9485309 -1.8910096 6.3781981
1.9485309 -1.8910096 6.5781984
1.9485309 -1.8910096 6.7781982
1.9485309 -1.8910096 6.9781981
1.9485309 -1.8910096 7.1781983
1.9485309 -1.8910096 7.3781981
1.9485309 -1.8910096 7.5781984
1.9485309 -1.8910096 7.7781982
1.9485309 -1.8910096 7.9781981
1.9485309 -1.8910096 8.1781979
1.9485309 -1.8910096 8.3781986
1.9485309 -1.8910096 8.5781984
0.39425296 -0.33401874 -0.22180164
0.53555095 -0.47556335 -0.22180164
0.67684895 -0.61710799 -0.22180164
0.81814694 -0.75865257 -0.22180164
0.95944494 -0.90019721 -0.22180164
1.1007429 -1.0417418 -0.22180164
1.2420409 -1.1832864 -0.22180164
1.3833389 -1.324831 -0.22180164
1.5246369 -1.4663757 -0.22180164
1.6659348 -1.6079202 -0.22180164
1.8072329 -1.7494649 -0.22180164
1.9485309 -1.8910096 -0.22180164
2.089829 -2.0325541 -0.22180164
2.2311268 -2.1740987 -0.22180164
2.3724248 -2.3156433 -0.22180164
2.089829 -2.0325541 -0.22180164
2.2313735 -1.8912562 -0.22180164
2.3729181 -1.7499582 -0.22180164
2.5144627 -1.6086602 -0.22180164
2.6560073 -1.4673622 -0.22180164
2.7975519 -1.3260642 -0.22180164
2.9390967 -1.1847662 -0.22180164
3.0806413 -1.0434682 -0.22180164
3.2221859 -0.90217024 -0.22180164
3.3637304 -0.7608723 -0.22180164
3.505275 -0.61957425 -0.22180164
3.6468196 -0.47827625 -0.22180164
3.7883644 -0.33697823 -0.22180164
3.9299088 -0.19568038 -0.22180164
4.0714536 -0.054382354 -0.22180164
4.2129979 0.086915672 -0.22180164
4.3545427 0.2282137 -0.22180164
4.4960876 0.36951172 -0.22180164
4.6376319 0.5108096 -0.22180164
4.7791767 0.6521076 -0.22180164
4.9207211 0.79340559 -0.22180164
5.0622659 0.93470347 -0.22180164
5.2038107 1.0760016 -0.22180164
5.345355 1.2172995 -0.22180164
5.4868999 1.3585978 -0.22180164
5.6284442 1.4998956 -0.22180164
5.7699885 1.6411934 -0.22180164
5.9115334 1.7824916 -0.22180164
6.0530782 1.9237895 -0.22180164
6.194623 2.0650876 -0.22180164
2.089829 -2.0325541 -0.22180164
2.089829 -2.0325541 -0.021801636
2.089829 -2.0325541 0.17819837
2.089829 -2.0325541 0.37819839
2.089829 -2.0325541 0.57819837
2.089829 -2.0325541 0.77819836
2.089829 -2.0325541 0.97819841
2.089829 -2.0325541 1.1781983
2.089829 -2.0325541 1.3781984
2.089829 -2.0325541 1.5781983
2.089829 -2.0325541 1.7781984
2.089829 -2.0325541 1.9781984
2.089829 -2.0325541 2.1781983
2.089829 -2.0325541 2.3781981
2.089829 -2.0325541 2.5781982
2.089829 -2.0325541 2.7781982
2.089829 -2.0325541 2.9781983
2.089829 -2.0325541 3.1781983
2.089829 -2.0325541 3.3781981
2.089829 -2.0325541 3.5781982
2.089829 -2.0325541 3.7781982
2.089829 -2.0325541 3.9781981
2.089829 -2.0325541 4.1781983
2.089829 -2.0325541 4.3781981
2.089829 -2.0325541 4.5781984
2.089829 -2.0325541 4.7781982
2.089829 -2.0325541 4.9781981
2.089829 -2.0325541 5.1781983
2.089829 -2.0325541 5.3781981
2.089829 -2.0325541 5.5781984
2.089829 -2.0325541 5.7781982
2.089829 -2.0325541 5.9781981
2.089829 -2.0325541 6.1781983
2.089829 -2.0325541 6.3781981
2.089829 -2.0325541 6.5781984
2.089829 -2.0325541 6.7781982
2.089829 -2.0325541 6.9781981
2.089829 -2.0325541 7.1781983
2.089829 -2.0325541 7.3781981
2.089829 -2.0325541 7.5781984
2.089829 -2.0325541 7.7781982
2.089829 -2.0325541 7.9781981
2.089829 -2.0325541 8.1781979
2.089829 -2.0325541 8.3781986
2.089829 -2.0325541 8.5781984
0.39425296 -0.33401874 -0.22180164
0.53555095 -0.47556335 -0.22180164
0.67684895 -0.61710799 -0.22180164
0.81814694 -0.75865257 -0.22180164
0.95944494 -0.90019721 -0.22180164
1.1007429 -1.0417418 -0.22180164
1.2420409 -1.1832864 -0.22180164
1.3833389 -1.324831 -0.22180164
1.5246369 -1.4663757 -0.22180164
1.6659348 -1.6079202 -0.22180164
1.8072329 -1.7494649 -0.22180164
1.9485309 -1.8910096 -0.22180164
2.089829 -2.0325541 -0.22180164
2.2311268 -2.1740987 -0.22180164
2.3724248 -2.3156433 -0.22180164
2.2311268 -2.1740987 -0.22180164
2.3726714 -2.0328007 -0.22180164
2.5142159 -1.8915026 -0.22180164
2.6557605 -1.7502047 -0.22180164
2.7973053 -1.6089067 -0.22180164
2.9388499 -1.4676087 -0.22180164
3.0803945 -1.3263106 -0.22180164
3.2219391 -1.1850127 -0.22180164
3.3634837 -1.0437148 -0.22180164
3.5050282 -0.90241677 -0.22180164
3.6465728 -0.76111877 -0.22180164
3.7881176 -0.61982071 -0.22180164
3.9296622 -0.47852272 -0.22180164
4.0712066 -0.33722487 -0.22180164
4.2127514 -0.19592683 -0.22180164
4.3542962 -0.054628812 -0.22180164
4.4958405 0.086669214 -0.22180164
4.6373854 0.22796723 -0.22180164
4.7789297 0.36926508 -0.22180164
4.9204745 0.51056314 -0.22180164
5.0620189 0.65186113 -0.22180164
5.2035637 0.79315901 -0.22180164
5.3451085 0.93445718 -0.22180164
5.4866529 1.075755 -0.22180164
5.6281977 1.2170532 -0.22180164
5.769742 1.3583511 -0.22180164
5.9112868 1.4996489 -0.22180164
6.0528316 1.6409471 -0.22180164
6.194376 1.782245 -0.22180164
6.3359208 1.9235432 -0.22180164
2.2311268 -2.1740987 -0.22180164
2.2311268 -2.1740987 -0.021801636
2.2311268 -2.1740987 0.17819837
2.2311268 -2.1740987 0.37819839
2.2311268 -2.1740987 0.57819837
2.2311268 -2.1740987 0.77819836
2.2311268 -2.1740987 0.97819841
2.2311268 -2.1740987 1.1781983
2.2311268 -2.1740987 1.3781984
2.2311268 -2.1740987 1.5781983
2.2311268 -2.1740987 1.7781984
2.2311268 -2.1740987 1.9781984
2.2311268 -2.1740987 2.1781983
2.2311268 -2.1740987 2.3781981
2.2311268 -2.1740987 2.5781982
2.2311268 -2.1740987 2.7781982
2.2311268 -2.1740987 2.9781983
2.2311268 -2.1740987 3.1781983
2.2311268 -2.1740987 3.3781981
2.2311268 -2.1740987 3.5781982
2.2311268 -2.1740987 3.7781982
2.2311268 -2.1740987 3.9781981
2.2311268 -2.1740987 4.1781983
2.2311268 -2.1740987 4.3781981
2.2311268 -2.1740987 4.5781984
2.2311268 -2.1740987 4.7781982
2.2311268 -2.1740987 4.9781981
2.2311268 -2.1740987 5.1781983
2.2311268 -2.1740987 5.3781981
2.2311268 -2.1740987 5.5781984
2.2311268 -2.1740987 5.7781982
2.2311268 -2.1740987 5.9781981
2.2311268 -2.1740987 6.1781983
2.2311268 -2.1740987 6.3781981
2.2311268 -2.1740987 6.5781984
2.2311268 -2.1740987 6.7781982
2.2311268 -2.1740987 6.9781981
2.2311268 -2.1740987 7.1781983
2.2311268 -2.1740987 7.3781981
2.2311268 -2.1740987 7.5781984
2.2311268 -2.1740987 7.7781982
2.2311268 -2.1740987 7.9781981
2.2311268 -2.1740987 8.1781979
2.2311268 -2.1740987 8.3781986
2.2311268 -2.1740987 8.5781984
0.39425296 -0.33401874 -0.22180164
0.53555095 -0.47556335 -0.22180164
0.67684895 -0.61710799 -0.22180164
0.81814694 -0.75865257 -0.22180164
0.95944494 -0.90019721 -0.22180164
1.1007429 -1.0417418 -0.22180164
1.2420409 -1.1832864 -0.22180164
1.3833389 -1.324831 -0.22180164
1.5246369 -1.4663757 -0.22180164
1.6659348 -1.6079202 -0.22180164
1.8072329 -1.7494649 -0.22180164
1.9485309 -1.8910096 -0.22180164
2.089829 -2.0325541 -0.22180164
2.2311268 -2.1740987 -0.22180164
2.3724248 -2.3156433 -0.22180164
2.3724248 -2.3156433 -0.22180164
2.5139694 -2.1743453 -0.22180164
2.655514 -2.0330474 -0.22180164
2.7970586 -1.8917493 -0.22180164
2.9386032 -1.7504513 -0.22180164
3.0801477 -1.6091534 -0.22180164
3.2216926 -1.4678553 -0.22180164
3.3632371 -1.3265574 -0.22180164
3.5047817 -1.1852593 -0.22180164
3.6463263 -1.0439614 -0.22180164
3.7878709 -0.90266341 -0.22180164
3.9294155 -0.76136541 -0.22180164
4.07096 -0.62006736 -0.22180164
4.2125049 -0.47876951 -0.22180164
4.3540492 -0.33747149 -0.22180164
4.495594 -0.19617346 -0.22180164
4.6371388 -0.054875437 -0.22180164
4.7786832 0.086422585 -0.22180164
4.920228 0.22772044 -0.22180164
5.0617723 0.36901847 -0.22180164
5.2033172 0.51031649 -0.22180164
5.3448615 0.65161437 -0.22180164
5.4864063 0.79291254 -0.22180164
5.6279507 0.93421042 -0.22180164
5.7694955 1.0755086 -0.22180164
5.9110403 1.2168064 -0.22180164
6.0525846 1.3581043 -0.22180164
6.1941295 1.4994025 -0.22180164
6.3356738 1.6407003 -0.22180164
6.4772186 1.7819985 -0.22180164
2.3724248 -2.3156433 -0.22180164
2.3724248 -2.3156433 -0.021801636
2.3724248 -2.3156433 0.17819837
2.3724248 -2.3156433 0.37819839
2.3724248 -2.3156433 0.57819837
2.3724248 -2.3156433 0.77819836
2.3724248 -2.3156433 0.97819841
2.3724248 -2.3156433 1.1781983
2.3724248 -2.3156433 1.3781984
2.3724248 -2.3156433 1.5781983
2.3724248 -2.3156433 1.7781984
2.3724248 -2.3156433 1.9781984
2.3724248 -2.3156433 2.1781983
2.3724248 -2.3156433 2.3781981
2.3724248 -2.3156433 2.5781982
2.3724248 -2.3156433 2.7781982
2.3724248 -2.3156433 2.9781983
2.3724248 -2.3156433 3.1781983
2.3724248 -2.3156433 3.3781981
2.3724248 -2.3156433 3.5781982
2.3724248 -2.3156433 3.7781982
2.3724248 -2.3156433 3.9781981
2.3724248 -2.3156433 4.1781983
2.3724248 -2.3156433 4.3781981
2.3724248 -2.3156433 4.5781984
2.3724248 -2.3156433 4.7781982
2.3724248 -2.3156433 4.9781981
2.3724248 -2.3156433 5.1781983
2.3724248 -2.3156433 5.3781981
2.3724248 -2.3156433 5.5781984
2.3724248 -2.3156433 5.7781982
2.3724248 -2.3156433 5.9781981
2.3724248 -2.3156433 6.1781983
2.3724248 -2.3156433 6.3781981
2.3724248 -2.3156433 6.5781984
2.3724248 -2.3156433 6.7781982
2.3724248 -2.3156433 6.9781981
2.3724248 -2.3156433 7.1781983
2.3724248 -2.3156433 7.3781981
2.3724248 -2.3156433 7.5781984
2.3724248 -2.3156433 7.7781982
2.3724248 -2.3156433 7.9781981
2.3724248 -2.3156433 8.1781979
2.3724248 -2.3156433 8.3781986
2.3724248 -2.3156433 8.5781984
0.39425296 -0.33401874 -0.22180164
0.5357976 -0.19272073 -0.22180164
0.67734218 -0.051422741 -0.22180164
0.81888682 0.089875259 -0.22180164
0.96043146 0.23117325 -0.22180164
1.101976 0.37247121 -0.22180164
1.2435207 0.51376927 -0.22180164
1.3850652 0.65506721 -0.22180164
1.5266099 0.7963652 -0.22180164
1.6681545 0.93766314 -0.22180164
1.8096991 1.0789611 -0.22180164
1.9512438 1.2202592 -0.22180164
2.0927885 1.3615572 -0.22180164
2.2343328 1.5028551 -0.22180164
2.3758776 1.6441531 -0.22180164
2.5174222 1.7854512 -0.22180164
2.6589668 1.9267491 -0.22180164
2.8005116 2.0680473 -0.22180164
2.9420559 2.2093451 -0.22180164
3.0836005 2.3506432 -0.22180164
3.2251453 2.491941 -0.22180164
3.3666897 2.633239 -0.22180164
3.5082345 2.7745371 -0.22180164
3.6497791 2.9158349 -0.22180164
3.7913239 3.0571332 -0.22180164
3.9328682 3.198431 -0.22180164
4.0744128 3.3397288 -0.22180164
4.2159576 3.4810271 -0.22180164
4.357502 3.6223249 -0.22180164
4.4990468 3.763623 -0.22180164
0.39425296 -0.33401874 -0.22180164
0.39425296 -0.33401874 -0.021801636
0.39425296 -0.33401874 0.17819837
0.39425296 -0.33401874 0.37819839
0.39425296 -0.33401874 0.57819837
0.39425296 -0.33401874 0.77819836
0.39425296 -0.33401874 0.97819841
0.39425296 -0.33401874 1.1781983
0.39425296 -0.33401874 1.3781984
0.39425296 -0.33401874 1.5781983
0.39425296 -0.33401874 1.7781984
0.39425296 -0.33401874 1.9781984
0.39425296 -0.33401874 2.1781983
0.39425296 -0.33401874 2.3781981
0.39425296 -0.33401874 2.5781982
0.39425296 -0.33401874 2.7781982
0.39425296 -0.33401874 2.9781983
0.39425296 -0.33401874 3.1781983
0.39425296 -0.33401874 3.3781981
0.39425296 -0.33401874 3.5781982
0.39425296 -0.33401874 3.7781982
0.39425296 -0.33401874 3.9781981
0.39425296 -0.33401874 4.1781983
0.39425296 -0.33401874 4.3781981
0.39425296 -0.33401874 4.5781984
0.39425296 -0.33401874 4.7781982
0.39425296 -0.33401874 4.9781981
0.39425296 -0.33401874 5.1781983
0.39425296 -0.33401874 5.3781981
0.39425296 -0.33401874 5.5781984
0.39425296 -0.33401874 5.7781982
0.39425296 -0.33401874 5.9781981
0.39425296 -0.33401874 6.1781983
0.39425296 -0.33401874 6.3781981
0.39425296 -0.33401874 6.5781984
0.39425296 -0.33401874 6.7781982
0.39425296 -0.33401874 6.9781981
0.39425296 -0.33401874 7.1781983
0.39425296 -0.33401874 7.3781981
0.39425296 -0.33401874 7.5781984
0.39425296 -0.33401874 7.7781982
0.39425296 -0.33401874 7.9781981
0.39425296 -0.33401874 8.1781979
0.39425296 -0.33401874 8.3781986
0.39425296 -0.33401874 8.5781984
0.39425296 -0.33401874 -0.22180164
0.5357976 -0.19272073 -0.22180164
0.67734218 -0.051422741 -0.22180164
0.81888682 0.089875259 -0.22180164
0.96043146 0.23117325 -0.22180164
1.101976 0.37247121 -0.22180164
1.2435207 0.51376927 -0.22180164
1.3850652 0.65506721 -0.22180164
1.5266099 0.7963652 -0.22180164
1.6681545 0.93766314 -0.22180164
1.8096991 1.0789611 -0.22180164
1.9512438 1.2202592 -0.22180164
2.0927885 1.3615572 -0.22180164
2.2343328 1.5028551 -0.22180164
2.3758776 1.6441531 -0.22180164
2.5174222 1.7854512 -0.22180164
2.6589668 1.9267491 -0.22180164
2.8005116 2.0680473 -0.22180164
2.9420559 2.2093451 -0.22180164
3.0836005 2.3506432 -0.22180164
3.2251453 2.491941 -0.22180164
3.3666897 2.633239 -0.22180164
3.5082345 2.7745371 -0.22180164
3.6497791 2.9158349 -0.22180164
3.7913239 3.0571332 -0.22180164
3.9328682 3.198431 -0.22180164
4.0744128 3.3397288 -0.22180164
4.2159576 3.4810271 -0.22180164
4.357502 3.6223249 -0.22180164
4.4990468 3.763623 -0.22180164
0.5357976 -0.19272073 -0.22180164
0.5357976 -0.19272073 -0.021801636
0.5357976 -0.19272073 0.17819837
0.5357976 -0.19272073 0.37819839
0.5357976 -0.19272073 0.57819837
0.5357976 -0.19272073 0.77819836
0.5357976 -0.19272073 0.97819841
0.5357976 -0.19272073 1.1781983
0.5357976 -0.19272073 1.3781984
0.5357976 -0.19272073 1.5781983
0.5357976 -0.19272073 1.7781984
0.5357976 -0.19272073 1.9781984
0.5357976 -0.19272073 2.1781983
0.5357976 -0.19272073 2.3781981
0.5357976 -0.19272073 2.5781982
0.5357976 -0.19272073 2.7781982
0.5357976 -0.19272073 2.9781983
0.5357976 -0.19272073 3.1781983
0.5357976 -0.19272073 3.3781981
0.5357976 -0.19272073 3.5781982
0.5357976 -0.19272073 3.7781982
0.5357976 -0.19272073 3.9781981
0.5357976 -0.19272073 4.1781983
0.5357976 -0.19272073 4.3781981
0.5357976 -0.19272073 4.5781984
0.5357976 -0.19272073 4.7781982
0.5357976 -0.19272073 4.9781981
0.5357976 -0.19272073 5.1781983
0.5357976 -0.19272073 5.3781981
0.5357976 -0.19272073 5.5781984
0.5357976 -0.19272073 5.7781982
0.5357976 -0.19272073 5.9781981
0.5357976 -0.19272073 6.1781983
0.5357976 -0.19272073 6.3781981
0.5357976 -0.19272073 6.5781984
0.5357976 -0.19272073 6.7781982
0.5357976 -0.19272073 6.9781981
0.5357976 -0.19272073 7.1781983
0.5357976 -0.19272073 7.3781981
0.5357976 -0.19272073 7.5781984
0.5357976 -0.19272073 7.7781982
0.5357976 -0.19272073 7.9781981
0.5357976 -0.19272073 8.1781979
0.5357976 -0.19272073 8.3781986
0.5357976 -0.19272073 8.5781984
0.39425296 -0.33401874 -0.22180164
0.5357976 -0.19272073 -0.22180164
0.67734218 -0.051422741 -0.22180164
0.81888682 0.089875259 -0.22180164
0.96043146 0.23117325 -0.22180164
1.101976 0.37247121 -0.22180164
1.2435207 0.51376927 -0.22180164
1.3850652 0.65506721 -0.22180164
1.5266099 0.7963652 -0.22180164
1.6681545 0.93766314 -0.22180164
1.8096991 1.0789611 -0.22180164
1.9512438 1.2202592 -0.22180164
2.0927885 1.3615572 -0.22180164
2.2343328 1.5028551 -0.22180164
2.3758776 1.6441531 -0.22180164
2.5174222 1.7854512 -0.22180164
2.6589668 1.9267491 -0.22180164
2.8005116 2.0680473 -0.22180164
2.9420559 2.2093451 -0.22180164
3.0836005 2.3506432 -0.22180164
3.2251453 2.491941 -0.22180164
3.3666897 2.633239 -0.22180164
3.5082345 2.7745371 -0.22180164
3.6497791 2.9158349 -0.22180164
3.7913239 3.0571332 -0.22180164
3.9328682 3.198431 -0.22180164
4.0744128 3.3397288 -0.22180164
4.2159576 3.4810271 -0.22180164
4.357502 3.6223249 -0.22180164
4.4990468 3.763623 -0.22180164
0.67734218 -0.051422741 -0.22180164
0.67734218 -0.051422741 -0.021801636
0.67734218 -0.051422741 0.17819837
0.67734218 -0.051422741 0.37819839
0.67734218 -0.051422741 0.57819837
0.67734218 -0.051422741 0.77819836
0.67734218 -0.051422741 0.97819841
0.67734218 -0.051422741 1.1781983
0.67734218 -0.051422741 1.3781984
0.67734218 -0.051422741 1.5781983
0.67734218 -0.051422741 1.7781984
0.67734218 -0.051422741 1.9781984
0.67734218 -0.051422741 2.1781983
0.67734218 -0.051422741 2.3781981
0.67734218 -0.051422741 2.5781982
0.67734218 -0.051422741 2.7781982
0.67734218 -0.051422741 2.9781983
0.67734218 -0.051422741 3.1781983
0.67734218 -0.051422741 3.3781981
0.67734218 -0.051422741 3.5781982
0.67734218 -0.051422741 3.7781982
0.67734218 -0.051422741 3.9781981
0.67734218 -0.051422741 4.1781983
0.67734218 -0.051422741 4.3781981
0.67734218 -0.051422741 4.5781984
0.67734218 -0.051422741 4.7781982
0.67734218 -0.051422741 4.9781981
0.67734218 -0.051422741 5.1781983
0.67734218 -0.051422741 5.3781981
0.67734218 -0.051422741 5.5781984
0.67734218 -0.051422741 5.7781982
0.67734218 -0.051422741 5.9781981
0.67734218 -0.051422741 6.1781983
0.67734218 -0.051422741 6.3781981
0.67734218 -0.051422741 6.5781984
0.67734218 -0.051422741 6.7781982
0.67734218 -0.051422741 6.9781981
0.67734218 -0.051422741 7.1781983
0.67734218 -0.051422741 7.3781981
0.67734218 -0.051422741 7.5781984
0.67734218 -0.051422741 7.7781982
0.67734218 -0.051422741 7.9781981
0.67734218 -0.051422741 8.1781979
0.67734218 -0.051422741 8.3781986
0.67734218 -0.051422741 8.5781984
0.39425296 -0.33401874 -0.22180164
0.5357976 -0.19272073 -0.22180164
0.67734218 -0.051422741 -0.22180164
0.81888682 0.089875259 -0.22180164
0.96043146 0.23117325 -0.22180164
1.101976 0.37247121 -0.22180164
1.2435207 0.51376927 -0.22180164
1.3850652 0.65506721 -0.22180164
1.5266099 0.7963652 -0.22180164
1.6681545 0.93766314 -0.22180164
1.8096991 1.0789611 -0.22180164
1.9512438 1.2202592 -0.22180164
2.0927885 1.3615572 -0.22180164
2.2343328 1.5028551 -0.22180164
2.3758776 1.6441531 -0.22180164
2.5174222 1.7854512 -0.22180164
2.6589668 1.9267491 -0.22180164
2.8005116 2.0680473 -0.22180164
2.9420559 2.2093451 -0.22180164
3.0836005 2.3506432 -0.22180164
3.2251453 2.491941 -0.22180164
3.3666897 2.633239 -0.22180164
3.5082345 2.7745371 -0.22180164
3.6497791 2.9158349 -0.22180164
3.7913239 3.0571332 -0.22180164
3.9328682 3.198431 -0.22180164
4.0744128 3.3397288 -0.22180164
4.2159576 3.4810271 -0.22180164
4.357502 3.6223249 -0.22180164
4.4990468 3.763623 -0.22180164
0.81888682 0.089875259 -0.22180164
0.81888682 0.089875259 -0.021801636
0.81888682 0.089875259 0.17819837
0.81888682 0.089875259 0.37819839
0.81888682 0.089875259 0.57819837
0.81888682 0.089875259 0.77819836
0.81888682 0.089875259 0.97819841
0.81888682 0.089875259 1.1781983
0.81888682 0.089875259 1.3781984
0.81888682 0.089875259 1.5781983
0.81888682 0.089875259 1.7781984
0.81888682 0.089875259 1.9781984
0.81888682 0.089875259 2.1781983
0.81888682 0.089875259 2.3781981
0.81888682 0.089875259 2.5781982
0.81888682 0.089875259 2.7781982
0.81888682 0.089875259 2.9781983
0.81888682 0.089875259 3.1781983
0.81888682 0.089875259 3.3781981
0.81888682 0.089875259 3.5781982
0.81888682 0.089875259 3.7781982
0.81888682 0.089875259 3.9781981
0.81888682 0.089875259 4.1781983
0.81888682 0.089875259 4.3781981
0.81888682 0.089875259 4.5781984
0.81888682 0.089875259 4.7781982
0.81888682 0.089875259 4.9781981
0.81888682 0.089875259 5.1781983
0.81888682 0.089875259 5.3781981
0.81888682 0.089875259 5.5781984
0.81888682 0.089875259 5.7781982
0.81888682 0.089875259 5.9781981
0.81888682 0.089875259 6.1781983
0.81888682 0.089875259 6.3781981
0.81888682 0.089875259 6.5781984
0.81888682 0.089875259 6.7781982
0.81888682 0.089875259 6.9781981
0.81888682 0.089875259 7.1781983
0.81888682 0.089875259 7.3781981
0.81888682 0.089875259 7.5781984
0.81888682 0.089875259 7.7781982
0.81888682 0.089875259 7.9781981
0.81888682 0.089875259 8.1781979
0.81888682 0.089875259 8.3781986
0.81888682 0.089875259 8.5781984
0.39425296 -0.33401874 -0.22180164
0.5357976 -0.19272073 -0.22180164
0.67734218 -0.051422741 -0.22180164
0.81888682 0.089875259 -0.22180164
0.96043146 0.23117325 -0.22180164
1.101976 0.37247121 -0.22180164
1.2435207 0.51376927 -0.22180164
1.3850652 0.65506721 -0.22180164
1.5266099 0.7963652 -0.22180164
1.6681545 0.93766314 -0.22180164
1.8096991 1.0789611 -0.22180164
1.9512438 1.2202592 -0.22180164
2.0927885 1.3615572 -0.22180164
2.2343328 1.5028551 -0.22180164
2.3758776 1.6441531 -0.22180164
2.5174222 1.7854512 -0.22180164
2.6589668 1.9267491 -0.22180164
2.8005116 2.0680473 -0.22180164
2.9420559 2.2093451 -0.22180164
3.0836005 2.3506432 -0.22180164
3.2251453 2.491941 -0.22180164
3.3666897 2.633239 -0.22180164
3.5082345 2.7745371 -0.22180164
3.6497791 2.9158349 -0.22180164
3.7913239 3.0571332 -0.22180164
3.9328682 3.198431 -0.22180164
4.0744128 3.3397288 -0.22180164
4.2159576 3.4810271 -0.22180164
4.357502 3.6223249 -0.22180164
4.4990468 3.763623 -0.22180164
0.96043146 0.23117325 -0.22180164
0.96043146 0.23117325 -0.021801636
0.96043146 0.23117325 0.17819837
0.96043146 0.23117325 0.37819839
0.96043146 0.23117325 0.57819837
0.96043146 0.23117325 0.77819836
0.96043146 0.23117325 0.97819841
0.96043146 0.23117325 1.1781983
0.96043146 0.23117325 1.3781984
0.96043146 0.23117325 1.5781983
0.96043146 0.23117325 1.7781984
0.96043146 0.23117325 1.9781984
0.96043146 0.23117325 2.1781983
0.96043146 0.23117325 2.3781981
0.96043146 0.23117325 2.5781982
0.96043146 0.23117325 2.7781982
0.96043146 0.23117325 2.9781983
0.96043146 0.23117325 3.1781983
0.96043146 0.23117325 3.3781981
0.96043146 0.23117325 3.5781982
0.96043146 0.23117325 3.7781982
0.96043146 0.23117325 3.9781981
0.96043146 0.23117325 4.1781983
0.96043146 0.23117325 4.3781981
0.96043146 0.23117325 4.5781984
0.96043146 0.23117325 4.7781982
0.96043146 0.23117325 4.9781981
0.96043146 0.23117325 5.1781983
0.96043146 0.23117325 5.3781981
0.96043146 0.23117325 5.5781984
0.96043146 0.23117325 5.7781982
0.96043146 0.23117325 5.9781981
0.96043146 0.23117325 6.1781983
0.96043146 0.23117325 6.3781981
0.96043146 0.23117325 6.5781984
0.96043146 0.23117325 6.7781982
0.96043146 0.23117325 6.9781981
0.96043146 0.23117325 7.1781983
0.96043146 0.23117325 7.3781981
0.96043146 0.23117325 7.5781984
0.96043146 0.23117325 7.7781982
0.96043146 0.23117325 7.9781981
0.96043146 0.23117325 8.1781979
0.96043146 0.23117325 8.3781986
0.96043146 0.23117325 8.5781984
0.39425296 -0.33401874 -0.22180164
0.5357976 -0.19272073 -0.22180164
0.67734218 -0.051422741 -0.22180164
0.81888682 0.089875259 -0.22180164
0.96043146 0.23117325 -0.22180164
1.101976 0.37247121 -0.22180164
1.2435207 0.51376927 -0.22180164
1.3850652 0.65506721 -0.22180164
1.5266099 0.7963652 -0.22180164
1.6681545 0.93766314 -0.22180164
1.8096991 1.0789611 -0.22180164
1.9512438 1.2202592 -0.22180164
2.0927885 1.3615572 -0.22180164
2.2343328 1.5028551 -0.22180164
2.3758776 1.6441531 -0.22180164
2.5174222 1.7854512 -0.22180164
2.6589668 1.9267491 -0.22180164
2.8005116 2.0680473 -0.22180164
2.9420559 2.2093451 -0.22180164
3.0836005 2.3506432 -0.22180164
3.2251453 2.491941 -0.22180164
3.3666897 2.633239 -0.22180164
3.5082345 2.7745371 -0.22180164
3.6497791 2.9158349 -0.22180164
3.7913239 3.0571332 -0.22180164
3.9328682 3.198431 -0.22180164
4.0744128 3.3397288 -0.22180164
4.2159576 3.4810271 -0.22180164
4.357502 3.6223249 -0.22180164
4.4990468 3.763623 -0.22180164
1.101976 0.37247121 -0.22180164
1.101976 0.37247121 -0.021801636
1.101976 0.37247121 0.17819837
1.101976 0.37247121 0.37819839
1.101976 0.37247121 0.57819837
1.101976 0.37247121 0.77819836
1.101976 0.37247121 0.97819841
1.101976 0.37247121 1.1781983
1.101976 0.37247121 1.3781984
1.101976 0.37247121 1.5781983
1.101976 0.37247121 1.7781984
1.101976 0.37247121 1.9781984
1.101976 0.37247121 2.1781983
1.101976 0.37247121 2.3781981
1.101976 0.37247121 2.5781982
1.101976 0.37247121 2.7781982
1.101976 0.37247121 2.9781983
1.101976 0.37247121 3.1781983
1.101976 0.37247121 3.3781981
1.101976 0.37247121 3.5781982
1.101976 0.37247121 3.7781982
1.101976 0.37247121 3.9781981
1.101976 0.37247121 4.1781983
1.101976 0.37247121 4.3781981
1.101976 0.37247121 4.5781984
1.101976 0.37247121 4.7781982
1.101976 0.37247121 4.9781981
1.101976 0.37247121 5.1781983
1.101976 0.37247121 5.3781981
1.101976 0.37247121 5.5781984
1.101976 0.37247121 5.7781982
1.101976 0.37247121 5.9781981
1.101976 0.37247121 6.1781983
1.101976 0.37247121 6.3781981
1.101976 0.37247121 6.5781984
1.101976 0.37247121 6.7781982
1.101976 0.37247121 6.9781981
1.101976 0.37247121 7.1781983
1.101976 0.37247121 7.3781981
1.101976 0.37247121 7.5781984
1.101976 0.37247121 7.7781982
1.101976 0.37247121 7.9781981
1.101976 0.37247121 8.1781979
1.101976 0.37247121 8.3781986
1.101976 0.37247121 8.5781984
0.39425296 -0.33401874 -0.22180164
0.5357976 -0.19272073 -0.22180164
0.67734218 -0.051422741 -0.22180164
0.81888682 0.089875259 -0.22180164
0.96043146 0.23117325 -0.22180164
1.101976 0.37247121 -0.22180164
1.2435207 0.51376927 -0.22180164
1.3850652 0.65506721 -0.22180164
1.5266099 0.7963652 -0.22180164
1.6681545 0.93766314 -0.22180164
1.8096991 1.0789611 -0.22180164
1.9512438 1.2202592 -0.22180164
2.0927885 1.3615572 -0.22180164
2.2343328 1.5028551 -0.22180164
2.3758776 1.6441531 -0.22180164
2.5174222 1.7854512 -0.22180164
2.6589668 1.9267491 -0.22180164
2.8005116 2.0680473 -0.22180164
2.9420559 2.2093451 -0.22180164
3.0836005 2.3506432 -0.22180164
3.2251453 2.491941 -0.22180164
3.3666897 2.633239 -0.22180164
3.5082345 2.7745371 -0.22180164
3.6497791 2.9158349 -0.22180164
3.7913239 3.0571332 -0.22180164
3.9328682 3.198431 -0.22180164
4.0744128 3.3397288 -0.22180164
4.2159576 3.4810271 -0.22180164
4.357502 3.6223249 -0.22180164
4.4990468 3.763623 -0.22180164
1.2435207 0.51376927 -0.22180164
1.2435207 0.51376927 -0.021801636
1.2435207 0.51376927 0.17819837
1.2435207 0.51376927 0.37819839
1.2435207 0.51376927 0.57819837
1.2435207 0.51376927 0.77819836
1.2435207 0.51376927 0.97819841
1.2435207 0.51376927 1.1781983
1.2435207 0.51376927 1.3781984
1.2435207 0.51376927 1.5781983
1.2435207 0.51376927 1.7781984
1.2435207 0.51376927 1.9781984
1.2435207 0.51376927 2.1781983
1.2435207 0.51376927 2.3781981
1.2435207 0.51376927 2.5781982
1.2435207 0.51376927 2.7781982
1.2435207 0.51376927 2.9781983
1.2435207 0.51376927 3.1781983
1.2435207 0.51376927 3.3781981
1.2435207 0.51376927 3.5781982
1.2435207 0.51376927 3.7781982
1.2435207 0.51376927 3.9781981
1.2435207 0.51376927 4.1781983
1.2435207 0.51376927 4.3781981
1.2435207 0.51376927 4.5781984
1.2435207 0.51376927 4.7781982
1.2435207 0.51376927 4.9781981
1.2435207 0.51376927 5.1781983
1.2435207 0.51376927 5.3781981
1.2435207 0.51376927 5.5781984
1.2435207 0.51376927 5.7781982
1.2435207 0.51376927 5.9781981
1.2435207 0.51376927 6.1781983
1.2435207 0.51376927 6.3781981
1.2435207 0.51376927 6.5781984
1.2435207 0.51376927 6.7781982
1.2435207 0.51376927 6.9781981
1.2435207 0.51376927 7.1781983
1.2435207 0.51376927 7.3781981
1.2435207 0.51376927 7.5781984
1.2435207 0.51376927 7.7781982
1.2435207 0.51376927 7.9781981
1.2435207 0.51376927 8.1781979
1.2435207 0.51376927 8.3781986
1.2435207 0.51376927 8.5781984
0.39425296 -0.33401874 -0.22180164
0.5357976 -0.19272073 -0.22180164
0.67734218 -0.051422741 -0.22180164
0.81888682 0.089875259 -0.22180164
0.96043146 0.23117325 -0.22180164
1.101976 0.37247121 -0.22180164
1.2435207 0.51376927 -0.22180164
1.3850652 0.65506721 -0.22180164
1.5266099 0.7963652 -0.22180164
1.6681545 0.93766314 -0.22180164
1.8096991 1.0789611 -0.22180164
1.9512438 1.2202592 -0.22180164
2.0927885 1.3615572 -0.22180164
2.2343328 1.5028551 -0.22180164
2.3758776 1.6441531 -0.22180164
2.5174222 1.7854512 -0.22180164
2.6589668 1.9267491 -0.22180164
2.8005116 2.0680473 -0.22180164
2.9420559 2.2093451 -0.22180164
3.0836005 2.3506432 -0.22180164
3.2251453 2.491941 -0.22180164
3.3666897 2.633239 -0.22180164
3.5082345 2.7745371 -0.22180164
3.6497791 2.9158349 -0.22180164
3.7913239 3.0571332 -0.22180164
3.9328682 3.198431 -0.22180164
4.0744128 3.3397288 -0.22180164
4.2159576 3.4810271 -0.22180164
4.357502 3.6223249 -0.22180164
4.4990468 3.763623 -0.22180164
1.3850652 0.65506721 -0.22180164
1.3850652 0.65506721 -0.021801636
1.3850652 0.65506721 0.17819837
1.3850652 0.65506721 0.37819839
1.3850652 0.65506721 0.57819837
1.3850652 0.65506721 0.77819836
1.3850652 0.65506721 0.97819841
1.3850652 0.65506721 1.1781983
1.3850652 0.65506721 1.3781984
1.3850652 0.65506721 1.5781983
1.3850652 0.65506721 1.7781984
1.3850652 0.65506721 1.9781984
1.3850652 0.65506721 2.1781983
1.3850652 0.65506721 2.3781981
1.3850652 0.65506721 2.5781982
1.3850652 0.65506721 2.7781982
1.3850652 0.65506721 2.9781983
1.3850652 0.65506721 3.1781983
1.3850652 0.65506721 3.3781981
1.3850652 0.65506721 3.5781982
1.3850652 0.65506721 3.7781982
1.3850652 0.65506721 3.9781981
1.3850652 0.65506721 4.1781983
1.3850652 0.65506721 4.3781981
1.3850652 0.65506721 4.5781984
1.3850652 0.65506721 4.7781982
1.3850652 0.65506721 4.9781981
1.3850652 0.65506721 5.1781983
1.3850652 0.65506721 5.3781981
1.3850652 0.65506721 5.5781984
1.3850652 0.65506721 5.7781982
1.3850652 0.65506721 5.9781981
1.3850652 0.65506721 6.1781983
1.3850652 0.65506721 6.3781981
1.3850652 0.65506721 6.5781984
1.3850652 0.65506721 6.7781982
1.3850652 0.65506721 6.9781981
1.3850652 0.65506721 7.1781983
1.3850652 0.65506721 7.3781981
1.3850652 0.65506721 7.5781984
1.3850652 0.65506721 7.7781982
1.3850652 0.65506721 7.9781981
1.3850652 0.65506721 8.1781979
1.3850652 0.65506721 8.3781986
1.3850652 0.65506721 8.5781984
0.39425296 -0.33401874 -0.22180164
0.5357976 -0.19272073 -0.22180164
0.67734218 -0.051422741 -0.22180164
0.81888682 0.089875259 -0.22180164
0.96043146 0.23117325 -0.22180164
1.101976 0.37247121 -0.22180164
1.2435207 0.51376927 -0.22180164
1.3850652 0.65506721 -0.22180164
1.5266099 0.7963652 -0.22180164
1.6681545 0.93766314 -0.22180164
1.8096991 1.0789611 -0.22180164
1.9512438 1.2202592 -0.22180164
2.0927885 1.3615572 -0.22180164
2.2343328 1.5028551 -0.22180164
2.3758776 1.6441531 -0.22180164
2.5174222 1.7854512 -0.22180164
2.6589668 1.9267491 -0.22180164
2.8005116 2.0680473 -0.22180164
2.9420559 2.2093451 -0.22180164
3.0836005 2.3506432 -0.22180164
3.2251453 2.491941 -0.22180164
3.3666897 2.633239 -0.22180164
3.5082345 2.7745371 -0.22180164
3.6497791 2.9158349 -0.22180164
3.7913239 3.0571332 -0.22180164
3.9328682 3.198431 -0.22180164
4.0744128 3.3397288 -0.22180164
4.2159576 3.4810271 -0.22180164
4.357502 3.6223249 -0.22180164
4.4990468 3.763623 -0.22180164
1.5266099 0.7963652 -0.22180164
1.5266099 0.7963652 -0.021801636
1.5266099 0.7963652 0.17819837
1.5266099 0.7963652 0.37819839
1.5266099 0.7963652 0.57819837
1.5266099 0.7963652 0.77819836
1.5266099 0.7963652 0.97819841
1.5266099 0.7963652 1.1781983
1.5266099 0.7963652 1.3781984
1.5266099 0.7963652 1.5781983
1.5266099 0.7963652 1.7781984
1.5266099 0.7963652 1.9781984
1.5266099 0.7963652 2.1781983
1.5266099 0.7963652 2.3781981
1.5266099 0.7963652 2.5781982
1.5266099 0.7963652 2.7781982
1.5266099 0.7963652 2.9781983
1.5266099 0.7963652 3.1781983
1.5266099 0.7963652 3.3781981
1.5266099 0.7963652 3.5781982
1.5266099 0.7963652 3.7781982
1.5266099 0.7963652 3.9781981
1.5266099 0.7963652 4.1781983
1.5266099 0.7963652 4.3781981
1.5266099 0.7963652 4.5781984
1.5266099 0.7963652 4.7781982
1.5266099 0.7963652 4.9781981
1.5266099 0.7963652 5.1781983
1.5266099 0.7963652 5.3781981
1.5266099 0.7963652 5.5781984
1.5266099 0.7963652 5.7781982
1.5266099 0.7963652 5.9781981
1.5266099 0.7963652 6.1781983
1.5266099 0.7963652 6.3781981
1.5266099 0.7963652 6.5781984
1.5266099 0.7963652 6.7781982
1.5266099 0.7963652 6.9781981
1.5266099 0.7963652 7.1781983
1.5266099 0.7963652 7.3781981
1.5266099 0.7963652 7.5781984
1.5266099 0.7963652 7.7781982
1.5266099 0.7963652 7.9781981
1.5266099 0.7963652 8.1781979
1.5266099 0.7963652 8.3781986
1.5266099 0.7963652 8.5781984
0.39425296 -0.33401874 -0.22180164
0.5357976 -0.19272073 -0.22180164
0.67734218 -0.051422741 -0.22180164
0.81888682 0.089875259 -0.22180164
0.96043146 0.23117325 -0.22180164
1.101976 0.37247121 -0.22180164
1.2435207 0.51376927 -0.22180164
1.3850652 0.65506721 -0.22180164
1.5266099 0.7963652 -0.22180164
1.6681545 0.93766314 -0.22180164
1.8096991 1.0789611 -0.22180164
1.9512438 1.2202592 -0.22180164
2.0927885 1.3615572 -0.22180164
2.2343328 1.5028551 -0.22180164
2.3758776 1.6441531 -0.22180164
2.5174222 1.7854512 -0.22180164
2.6589668 1.9267491 -0.22180164
2.8005116 2.0680473 -0.22180164
2.9420559 2.2093451 -0.22180164
3.0836005 2.3506432 -0.22180164
3.2251453 2.491941 -0.22180164
3.3666897 2.633239 -0.22180164
3.5082345 2.7745371 -0.22180164
3.6497791 2.9158349 -0.22180164
3.7913239 3.0571332 -0.22180164
3.9328682 3.198431 -0.22180164
4.0744128 3.3397288 -0.22180164
4.2159576 3.4810271 -0.22180164
4.357502 3.6223249 -0.22180164
4.4990468 3.763623 -0.22180164
1.6681545 0.93766314 -0.22180164
1.6681545 0.93766314 -0.021801636
1.6681545 0.93766314 0.17819837
1.6681545 0.93766314 0.37819839
1.6681545 0.93766314 0.57819837
1.6681545 0.93766314 0.77819836
1.6681545 0.93766314 0.97819841
1.6681545 0.93766314 1.1781983
1.6681545 0.93766314 1.3781984
1.6681545 0.93766314 1.5781983
1.6681545 0.93766314 1.7781984
1.6681545 0.93766314 1.9781984
