# .PCD v0.7 - Point Cloud Data file format
VERSION 0.7
FIELDS x y z
SIZE 4 4 4
TYPE F F F
COUNT 1 1 1
WIDTH 1473
HEIGHT 1
VIEWPOINT 0 0 0 1 0 0 0
POINTS 1473
DATA ascii
0.067714117 1.0320252 4.2869568
0.067714117 1.0320252 4.4869566
0.067714117 1.0320252 4.6869569
0.067714117 1.0320252 4.8869567
0.067714117 1.0320252 5.0869565
0.067714117 1.0320252 5.2869568
0.067714117 1.0320252 5.4869566
0.067714117 1.0320252 5.6869569
0.067714117 1.0320252 5.8869567
0.067714117 1.0320252 6.0869565
0.067714117 1.0320252 6.2869568
0.067714117 1.0320252 6.4869566
0.067714117 1.0320252 6.6869569
0.067714117 1.0320252 6.8869567
0.067714117 1.0320252 7.0869565
0.067714117 1.0320252 7.2869568
0.067714117 1.0320252 7.4869566
0.067714117 1.0320252 7.6869569
0.067714117 1.0320252 7.8869567
0.067714117 1.0320252 8.086956
0.067714117 1.0320252 8.2869558
0.067714117 1.0320252 8.4869566
0.067714117 1.0320252 8.6869564
-0.16607393 0.26694801 -0.11304333
-0.10762692 0.45821732 -0.11304333
-0.049179908 0.64948666 -0.11304333
0.0092671104 0.84075594 -0.11304333
0.067714117 1.0320252 -0.11304333
0.12616113 1.2232945 -0.11304333
0.18460815 1.4145639 -0.11304333
0.24305515 1.6058332 -0.11304333
0.30150217 1.7971025 -0.11304333
0.35994917 1.9883717 -0.11304333
0.41839617 2.179641 -0.11304333
0.47684321 2.3709104 -0.11304333
0.53529024 2.5621798 -0.11304333
0.59373719 2.753449 -0.11304333
0.65218425 2.9447181 -0.11304333
0.12616113 1.2232945 -0.11304333
-0.06510818 1.2817415 -0.11304333
-0.25637749 1.3401886 -0.11304333
-0.4476468 1.3986356 -0.11304333
-0.63891608 1.4570826 -0.11304333
-0.83018541 1.5155296 -0.11304333
-1.0214547 1.5739766 -0.11304333
-1.212724 1.6324236 -0.11304333
-1.4039934 1.6908706 -0.11304333
-1.5952625 1.7493176 -0.11304333
-1.7865319 1.8077646 -0.11304333
-1.9778013 1.8662117 -0.11304333
-2.1690707 1.9246587 -0.11304333
-2.3603396 1.9831057 -0.11304333
-2.551609 2.0415528 -0.11304333
-2.7428784 2.0999997 -0.11304333
-2.9341478 2.1584468 -0.11304333
-3.1254172 2.2168937 -0.11304333
-3.3166862 2.2753408 -0.11304333
-3.5079556 2.3337877 -0.11304333
-3.6992249 2.3922348 -0.11304333
-3.8904941 2.4506817 -0.11304333
-4.0817637 2.5091288 -0.11304333
-4.2730327 2.5675757 -0.11304333
-4.4643025 2.6260228 -0.11304333
-4.6555715 2.6844699 -0.11304333
-4.8468404 2.7429168 -0.11304333
-5.0381103 2.8013639 -0.11304333
-5.2293792 2.8598108 -0.11304333
-5.4206491 2.918258 -0.11304333
0.12616113 1.2232945 -0.11304333
0.12616113 1.2232945 0.086956672
0.12616113 1.2232945 0.28695667
0.12616113 1.2232945 0.48695669
0.12616113 1.2232945 0.6869567
0.12616113 1.2232945 0.88695669
0.12616113 1.2232945 1.0869567
0.12616113 1.2232945 1.2869567
0.12616113 1.2232945 1.4869567
0.12616113 1.2232945 1.6869566
0.12616113 1.2232945 1.8869567
0.12616113 1.2232945 2.0869567
0.12616113 1.2232945 2.2869568
0.12616113 1.2232945 2.4869566
0.12616113 1.2232945 2.6869566
0.12616113 1.2232945 2.8869567
0.12616113 1.2232945 3.0869567
0.12616113 1.2232945 3.2869568
0.12616113 1.2232945 3.4869566
0.12616113 1.2232945 3.6869566
0.12616113 1.2232945 3.8869567
0.12616113 1.2232945 4.0869565
0.12616113 1.2232945 4.2869568
0.12616113 1.2232945 4.4869566
0.12616113 1.2232945 4.6869569
0.12616113 1.2232945 4.8869567
0.12616113 1.2232945 5.0869565
0.12616113 1.2232945 5.2869568
0.12616113 1.2232945 5.4869566
0.12616113 1.2232945 5.6869569
0.12616113 1.2232945 5.8869567
0.12616113 1.2232945 6.0869565
0.12616113 1.2232945 6.2869568
0.12616113 1.2232945 6.4869566
0.12616113 1.2232945 6.6869569
0.12616113 1.2232945 6.8869567
0.12616113 1.2232945 7.0869565
0.12616113 1.2232945 7.2869568
0.12616113 1.2232945 7.4869566
0.12616113 1.2232945 7.6869569
0.12616113 1.2232945 7.8869567
0.12616113 1.2232945 8.086956
0.12616113 1.2232945 8.2869558
0.12616113 1.2232945 8.4869566
0.12616113 1.2232945 8.6869564
-0.16607393 0.26694801 -0.11304333
-0.10762692 0.45821732 -0.11304333
-0.049179908 0.64948666 -0.11304333
0.0092671104 0.84075594 -0.11304333
0.067714117 1.0320252 -0.11304333
0.12616113 1.2232945 -0.11304333
0.18460815 1.4145639 -0.11304333
0.24305515 1.6058332 -0.11304333
0.30150217 1.7971025 -0.11304333
0.35994917 1.9883717 -0.11304333
0.41839617 2.179641 -0.11304333
0.47684321 2.3709104 -0.11304333
0.53529024 2.5621798 -0.11304333
0.59373719 2.753449 -0.11304333
0.65218425 2.9447181 -0.11304333
0.18460815 1.4145639 -0.11304333
-0.0066611534 1.4730109 -0.11304333
-0.19793046 1.5314579 -0.11304333
-0.38919979 1.5899049 -0.11304333
-0.58046907 1.6483519 -0.11304333
-0.77173835 1.7067989 -0.11304333
-0.96300769 1.765246 -0.11304333
-1.154277 1.8236929 -0.11304333
-1.3455462 1.88214 -0.11304333
-1.5368155 1.940587 -0.11304333
-1.7280849 1.999034 -0.11304333
-1.9193542 2.0574811 -0.11304333
-2.1106236 2.1159282 -0.11304333
-2.3018928 2.1743751 -0.11304333
-2.4931622 2.2328219 -0.11304333
-2.6844313 2.2912691 -0.11304333
-2.8757007 2.3497162 -0.11304333
-3.0669701 2.4081631 -0.11304333
-3.2582393 2.4666102 -0.11304333
-3.4495087 2.5250571 -0.11304333
-3.6407778 2.5835042 -0.11304333
-3.832047 2.6419511 -0.11304333
-4.0233169 2.7003982 -0.11304333
-4.2145858 2.7588451 -0.11304333
-4.4058552 2.8172922 -0.11304333
-4.5971246 2.8757391 -0.11304333
-4.7883935 2.9341862 -0.11304333
-4.9796634 2.9926333 -0.11304333
-5.1709323 3.0510802 -0.11304333
-5.3622017 3.1095273 -0.11304333
0.18460815 1.4145639 -0.11304333
0.18460815 1.4145639 0.086956672
0.18460815 1.4145639 0.28695667
0.18460815 1.4145639 0.48695669
0.18460815 1.4145639 0.6869567
0.18460815 1.4145639 0.88695669
0.18460815 1.4145639 1.0869567
0.18460815 1.4145639 1.2869567
0.18460815 1.4145639 1.4869567
0.18460815 1.4145639 1.6869566
0.18460815 1.4145639 1.8869567
0.18460815 1.4145639 2.0869567
0.18460815 1.4145639 2.2869568
0.18460815 1.4145639 2.4869566
0.18460815 1.4145639 2.6869566
0.18460815 1.4145639 2.8869567
0.18460815 1.4145639 3.0869567
0.18460815 1.4145639 3.2869568
0.18460815 1.4145639 3.4869566
0.18460815 1.4145639 3.6869566
0.18460815 1.4145639 3.8869567
0.18460815 1.4145639 4.0869565
0.18460815 1.4145639 4.2869568
0.18460815 1.4145639 4.4869566
0.18460815 1.4145639 4.6869569
0.18460815 1.4145639 4.8869567
0.18460815 1.4145639 5.0869565
0.18460815 1.4145639 5.2869568
0.18460815 1.4145639 5.4869566
0.18460815 1.4145639 5.6869569
0.18460815 1.4145639 5.8869567
0.18460815 1.4145639 6.0869565
0.18460815 1.4145639 6.2869568
0.18460815 1.4145639 6.4869566
0.18460815 1.4145639 6.6869569
0.18460815 1.4145639 6.8869567
0.18460815 1.4145639 7.0869565
0.18460815 1.4145639 7.2869568
0.18460815 1.4145639 7.4869566
0.18460815 1.4145639 7.6869569
0.18460815 1.4145639 7.8869567
0.18460815 1.4145639 8.086956
0.18460815 1.4145639 8.2869558
0.18460815 1.4145639 8.4869566
0.18460815 1.4145639 8.6869564
-0.16607393 0.26694801 -0.11304333
-0.10762692 0.45821732 -0.11304333
-0.049179908 0.64948666 -0.11304333
0.0092671104 0.84075594 -0.11304333
0.067714117 1.0320252 -0.11304333
0.12616113 1.2232945 -0.11304333
0.18460815 1.4145639 -0.11304333
0.24305515 1.6058332 -0.11304333
0.30150217 1.7971025 -0.11304333
0.35994917 1.9883717 -0.11304333
0.41839617 2.179641 -0.11304333
0.47684321 2.3709104 -0.11304333
0.53529024 2.5621798 -0.11304333
0.59373719 2.753449 -0.11304333
0.65218425 2.9447181 -0.11304333
0.24305515 1.6058332 -0.11304333
0.051785838 1.6642802 -0.11304333
-0.13948347 1.7227272 -0.11304333
-0.33075279 1.7811742 -0.11304333
-0.52202207 1.8396212 -0.11304333
-0.71329135 1.8980682 -0.11304333
-0.90456074 1.9565152 -0.11304333
-1.09583 2.0149622 -0.11304333
-1.2870994 2.0734093 -0.11304333
-1.4783685 2.1318562 -0.11304333
-1.6696379 2.1903033 -0.11304333
-1.8609072 2.2487502 -0.11304333
-2.0521767 2.3071973 -0.11304333
-2.2434456 2.3656442 -0.11304333
-2.434715 2.4240913 -0.11304333
-2.6259844 2.4825382 -0.11304333
-2.8172538 2.5409853 -0.11304333
-3.0085232 2.5994325 -0.11304333
-3.1997921 2.6578794 -0.11304333
-3.3910615 2.7163262 -0.11304333
-3.5823309 2.7747734 -0.11304333
-3.7736001 2.8332202 -0.11304333
-3.9648697 2.8916674 -0.11304333
-4.1561389 2.9501145 -0.11304333
-4.3474083 3.0085614 -0.11304333
-4.5386777 3.0670085 -0.11304333
-4.7299466 3.1254554 -0.11304333
-4.921216 3.1839025 -0.11304333
-5.1124854 3.2423494 -0.11304333
-5.3037548 3.3007965 -0.11304333
0.24305515 1.6058332 -0.11304333
0.24305515 1.6058332 0.086956672
0.24305515 1.6058332 0.28695667
0.24305515 1.6058332 0.48695669
0.24305515 1.6058332 0.6869567
0.24305515 1.6058332 0.88695669
0.24305515 1.6058332 1.0869567
0.24305515 1.6058332 1.2869567
0.24305515 1.6058332 1.4869567
0.24305515 1.6058332 1.6869566
0.24305515 1.6058332 1.8869567
0.24305515 1.6058332 2.0869567
0.24305515 1.6058332 2.2869568
0.24305515 1.6058332 2.4869566
0.24305515 1.6058332 2.6869566
0.24305515 1.6058332 2.8869567
0.24305515 1.6058332 3.0869567
0.24305515 1.6058332 3.2869568
0.24305515 1.6058332 3.4869566
0.24305515 1.6058332 3.6869566
0.24305515 1.6058332 3.8869567
0.24305515 1.6058332 4.0869565
0.24305515 1.6058332 4.2869568
0.24305515 1.6058332 4.4869566
0.24305515 1.6058332 4.6869569
0.24305515 1.6058332 4.8869567
0.24305515 1.6058332 5.0869565
0.24305515 1.6058332 5.2869568
0.24305515 1.6058332 5.4869566
0.24305515 1.6058332 5.6869569
0.24305515 1.6058332 5.8869567
0.24305515 1.6058332 6.0869565
0.24305515 1.6058332 6.2869568
0.24305515 1.6058332 6.4869566
0.24305515 1.6058332 6.6869569
0.24305515 1.6058332 6.8869567
0.24305515 1.6058332 7.0869565
0.24305515 1.6058332 7.2869568
0.24305515 1.6058332 7.4869566
0.24305515 1.6058332 7.6869569
0.24305515 1.6058332 7.8869567
0.24305515 1.6058332 8.086956
0.24305515 1.6058332 8.2869558
0.24305515 1.6058332 8.4869566
0.24305515 1.6058332 8.6869564
-0.16607393 0.26694801 -0.11304333
-0.10762692 0.45821732 -0.11304333
-0.049179908 0.64948666 -0.11304333
0.0092671104 0.84075594 -0.11304333
0.067714117 1.0320252 -0.11304333
0.12616113 1.2232945 -0.11304333
0.18460815 1.4145639 -0.11304333
0.24305515 1.6058332 -0.11304333
0.30150217 1.7971025 -0.11304333
0.35994917 1.9883717 -0.11304333
0.41839617 2.179641 -0.11304333
0.47684321 2.3709104 -0.11304333
0.53529024 2.5621798 -0.11304333
0.59373719 2.753449 -0.11304333
0.65218425 2.9447181 -0.11304333
0.30150217 1.7971025 -0.11304333
0.11023287 1.8555495 -0.11304333
-0.081036441 1.9139965 -0.11304333
-0.27230576 1.9724435 -0.11304333
-0.46357507 2.0308905 -0.11304333
-0.65484434 2.0893376 -0.11304333
-0.84611368 2.1477845 -0.11304333
-1.037383 2.2062316 -0.11304333
-1.2286522 2.2646785 -0.11304333
-1.4199215 2.3231256 -0.11304333
-1.6111909 2.3815725 -0.11304333
-1.8024602 2.4400196 -0.11304333
-1.9937296 2.4984667 -0.11304333
-2.1849988 2.5569136 -0.11304333
-2.3762681 2.6153607 -0.11304333
-2.5675373 2.6738076 -0.11304333
-2.7588067 2.7322547 -0.11304333
-2.9500761 2.7907016 -0.11304333
-3.1413453 2.8491488 -0.11304333
-3.3326147 2.9075956 -0.11304333
-3.5238838 2.9660428 -0.11304333
-3.715153 3.0244896 -0.11304333
-3.9064226 3.0829368 -0.11304333
-4.0976915 3.1413836 -0.11304333
-4.2889614 3.1998308 -0.11304333
-4.4802303 3.2582779 -0.11304333
-4.6714997 3.3167248 -0.11304333
-4.8627691 3.3751719 -0.11304333
-5.054038 3.4336188 -0.11304333
-5.2453079 3.4920659 -0.11304333
0.30150217 1.7971025 -0.11304333
0.30150217 1.7971025 0.086956672
0.30150217 1.7971025 0.28695667
0.30150217 1.7971025 0.48695669
0.30150217 1.7971025 0.6869567
0.30150217 1.7971025 0.88695669
0.30150217 1.7971025 1.0869567
0.30150217 1.7971025 1.2869567
0.30150217 1.7971025 1.4869567
0.30150217 1.7971025 1.6869566
0.30150217 1.7971025 1.8869567
0.30150217 1.7971025 2.0869567
0.30150217 1.7971025 2.2869568
0.30150217 1.7971025 2.4869566
0.30150217 1.7971025 2.6869566
0.30150217 1.7971025 2.8869567
0.30150217 1.7971025 3.0869567
0.30150217 1.7971025 3.2869568
0.30150217 1.7971025 3.4869566
0.30150217 1.7971025 3.6869566
0.30150217 1.7971025 3.8869567
0.30150217 1.7971025 4.0869565
0.30150217 1.7971025 4.2869568
0.30150217 1.7971025 4.4869566
0.30150217 1.7971025 4.6869569
0.30150217 1.7971025 4.8869567
0.30150217 1.7971025 5.0869565
0.30150217 1.7971025 5.2869568
0.30150217 1.7971025 5.4869566
0.30150217 1.7971025 5.6869569
0.30150217 1.7971025 5.8869567
0.30150217 1.7971025 6.0869565
0.30150217 1.7971025 6.2869568
0.30150217 1.7971025 6.4869566
0.30150217 1.7971025 6.6869569
0.30150217 1.7971025 6.8869567
0.30150217 1.7971025 7.0869565
0.30150217 1.7971025 7.2869568
0.30150217 1.7971025 7.4869566
0.30150217 1.7971025 7.6869569
0.30150217 1.7971025 7.8869567
0.30150217 1.7971025 8.086956
0.30150217 1.7971025 8.2869558
0.30150217 1.7971025 8.4869566
0.30150217 1.7971025 8.6869564
-0.16607393 0.26694801 -0.11304333
-0.10762692 0.45821732 -0.11304333
-0.049179908 0.64948666 -0.11304333
0.0092671104 0.84075594 -0.11304333
0.067714117 1.0320252 -0.11304333
0.12616113 1.2232945 -0.11304333
0.18460815 1.4145639 -0.11304333
0.24305515 1.6058332 -0.11304333
0.30150217 1.7971025 -0.11304333
0.35994917 1.9883717 -0.11304333
0.41839617 2.179641 -0.11304333
0.47684321 2.3709104 -0.11304333
0.53529024 2.5621798 -0.11304333
0.59373719 2.753449 -0.11304333
0.65218425 2.9447181 -0.11304333
0.35994917 1.9883717 -0.11304333
0.16867985 2.0468187 -0.11304333
-0.022589451 2.1052659 -0.11304333
-0.21385877 2.1637127 -0.11304333
-0.40512806 2.2221599 -0.11304333
-0.59639734 2.2806067 -0.11304333
-0.78766674 2.3390539 -0.11304333
-0.97893596 2.3975008 -0.11304333
-1.1702052 2.4559479 -0.11304333
-1.3614745 2.5143948 -0.11304333
-1.5527439 2.5728419 -0.11304333
-1.7440132 2.6312888 -0.11304333
-1.9352826 2.6897359 -0.11304333
-2.1265516 2.7481828 -0.11304333
-2.317821 2.8066299 -0.11304333
-2.5090904 2.8650768 -0.11304333
-2.7003598 2.9235239 -0.11304333
-2.8916292 2.981971 -0.11304333
-3.0828981 3.0404179 -0.11304333
-3.2741675 3.098865 -0.11304333
-3.4654369 3.1573119 -0.11304333
-3.6567061 3.2157588 -0.11304333
-3.8479757 3.2742059 -0.11304333
-4.0392447 3.332653 -0.11304333
-4.2305145 3.3911002 -0.11304333
-4.4217834 3.4495471 -0.11304333
-4.6130524 3.5079939 -0.11304333
-4.8043222 3.5664411 -0.11304333
-4.9955912 3.6248879 -0.11304333
-5.186861 3.6833351 -0.11304333
0.35994917 1.9883717 -0.11304333
0.35994917 1.9883717 0.086956672
0.35994917 1.9883717 0.28695667
0.35994917 1.9883717 0.48695669
0.35994917 1.9883717 0.6869567
0.35994917 1.9883717 0.88695669
0.35994917 1.9883717 1.0869567
0.35994917 1.9883717 1.2869567
0.35994917 1.9883717 1.4869567
0.35994917 1.9883717 1.6869566
0.35994917 1.9883717 1.8869567
0.35994917 1.9883717 2.0869567
0.35994917 1.9883717 2.2869568
0.35994917 1.9883717 2.4869566
0.35994917 1.9883717 2.6869566
0.35994917 1.9883717 2.8869567
0.35994917 1.9883717 3.0869567
0.35994917 1.9883717 3.2869568
0.35994917 1.9883717 3.4869566
0.35994917 1.9883717 3.6869566
0.35994917 1.9883717 3.8869567
0.35994917 1.9883717 4.0869565
0.35994917 1.9883717 4.2869568
0.35994917 1.9883717 4.4869566
0.35994917 1.9883717 4.6869569
0.35994917 1.9883717 4.8869567
0.35994917 1.9883717 5.0869565
0.35994917 1.9883717 5.2869568
0.35994917 1.9883717 5.4869566
0.35994917 1.9883717 5.6869569
0.35994917 1.9883717 5.8869567
0.35994917 1.9883717 6.0869565
0.35994917 1.9883717 6.2869568
0.35994917 1.9883717 6.4869566
0.35994917 1.9883717 6.6869569
0.35994917 1.9883717 6.8869567
0.35994917 1.9883717 7.0869565
0.35994917 1.9883717 7.2869568
0.35994917 1.9883717 7.4869566
0.35994917 1.9883717 7.6869569
0.35994917 1.9883717 7.8869567
0.35994917 1.9883717 8.086956
0.35994917 1.9883717 8.2869558
0.35994917 1.9883717 8.4869566
0.35994917 1.9883717 8.6869564
-0.16607393 0.26694801 -0.11304333
-0.10762692 0.45821732 -0.11304333
-0.049179908 0.64948666 -0.11304333
0.0092671104 0.84075594 -0.11304333
0.067714117 1.0320252 -0.11304333
0.12616113 1.2232945 -0.11304333
0.18460815 1.4145639 -0.11304333
0.24305515 1.6058332 -0.11304333
0.30150217 1.7971025 -0.11304333
0.35994917 1.9883717 -0.11304333
0.41839617 2.179641 -0.11304333
0.47684321 2.3709104 -0.11304333
0.53529024 2.5621798 -0.11304333
0.59373719 2.753449 -0.11304333
0.65218425 2.9447181 -0.11304333
0.41839617 2.179641 -0.11304333
0.22712688 2.2380881 -0.11304333
0.035857573 2.296535 -0.11304333
-0.15541175 2.3549821 -0.11304333
-0.34668103 2.413429 -0.11304333
-0.53795034 2.4718761 -0.11304333
-0.72921968 2.5303233 -0.11304333
-0.92048889 2.5887702 -0.11304333
-1.1117582 2.6472173 -0.11304333
-1.3030275 2.7056642 -0.11304333
-1.4942969 2.7641113 -0.11304333
-1.6855662 2.8225582 -0.11304333
-1.8768356 2.8810053 -0.11304333
-2.0681047 2.9394522 -0.11304333
-2.2593741 2.9978993 -0.11304333
-2.4506433 3.0563462 -0.11304333
-2.6419127 3.1147933 -0.11304333
-2.8331821 3.1732402 -0.11304333
-3.0244513 3.2316873 -0.11304333
-3.2157207 3.2901342 -0.11304333
-3.4069898 3.3485813 -0.11304333
-3.598259 3.4070282 -0.11304333
-3.7895286 3.4654753 -0.11304333
-3.9807978 3.5239222 -0.11304333
-4.1720672 3.5823693 -0.11304333
-4.3633366 3.6408165 -0.11304333
-4.5546055 3.6992633 -0.11304333
-4.7458749 3.7577105 -0.11304333
-4.9371443 3.8161573 -0.11304333
-5.1284137 3.8746045 -0.11304333
0.41839617 2.179641 -0.11304333
0.41839617 2.179641 0.086956672
0.41839617 2.179641 0.28695667
0.41839617 2.179641 0.48695669
0.41839617 2.179641 0.6869567
0.41839617 2.179641 0.88695669
0.41839617 2.179641 1.0869567
0.41839617 2.179641 1.2869567
0.41839617 2.179641 1.4869567
0.41839617 2.179641 1.6869566
0.41839617 2.179641 1.8869567
0.41839617 2.179641 2.0869567
0.41839617 2.179641 2.2869568
0.41839617 2.179641 2.4869566
0.41839617 2.179641 2.6869566
0.41839617 2.179641 2.8869567
0.41839617 2.179641 3.0869567
0.41839617 2.179641 3.2869568
0.41839617 2.179641 3.4869566
0.41839617 2.179641 3.6869566
0.41839617 2.179641 3.8869567
0.41839617 2.179641 4.0869565
0.41839617 2.179641 4.2869568
0.41839617 2.179641 4.4869566
0.41839617 2.179641 4.6869569
0.41839617 2.179641 4.8869567
0.41839617 2.179641 5.0869565
0.41839617 2.179641 5.2869568
0.41839617 2.179641 5.4869566
0.41839617 2.179641 5.6869569
0.41839617 2.179641 5.8869567
0.41839617 2.179641 6.0869565
0.41839617 2.179641 6.2869568
0.41839617 2.179641 6.4869566
0.41839617 2.179641 6.6869569
0.41839617 2.179641 6.8869567
0.41839617 2.179641 7.0869565
0.41839617 2.179641 7.2869568
0.41839617 2.179641 7.4869566
0.41839617 2.179641 7.6869569
0.41839617 2.179641 7.8869567
0.41839617 2.179641 8.086956
0.41839617 2.179641 8.2869558
0.41839617 2.179641 8.4869566
0.41839617 2.179641 8.6869564
-0.16607393 0.26694801 -0.11304333
-0.10762692 0.45821732 -0.11304333
-0.049179908 0.64948666 -0.11304333
0.0092671104 0.84075594 -0.11304333
0.067714117 1.0320252 -0.11304333
0.12616113 1.2232945 -0.11304333
0.18460815 1.4145639 -0.11304333
0.24305515 1.6058332 -0.11304333
0.30150217 1.7971025 -0.11304333
0.35994917 1.9883717 -0.11304333
0.41839617 2.179641 -0.11304333
0.47684321 2.3709104 -0.11304333
0.53529024 2.5621798 -0.11304333
0.59373719 2.753449 -0.11304333
0.65218425 2.9447181 -0.11304333
0.47684321 2.3709104 -0.11304333
0.2855739 2.4293575 -0.11304333
0.094304599 2.4878044 -0.11304333
-0.096964717 2.5462515 -0.11304333
-0.28823403 2.6046984 -0.11304333
-0.4795033 2.6631455 -0.11304333
-0.67077267 2.7215924 -0.11304333
-0.86204189 2.7800395 -0.11304333
-1.0533112 2.8384864 -0.11304333
-1.2445805 2.8969336 -0.11304333
-1.4358498 2.9553804 -0.11304333
-1.6271192 3.0138276 -0.11304333
-1.8183886 3.0722747 -0.11304333
-2.0096576 3.1307216 -0.11304333
-2.200927 3.1891685 -0.11304333
-2.3921964 3.2476156 -0.11304333
-2.5834658 3.3060627 -0.11304333
-2.774735 3.3645096 -0.11304333
-2.9660041 3.4229567 -0.11304333
-3.1572735 3.4814036 -0.11304333
-3.3485429 3.5398507 -0.11304333
-3.5398121 3.5982976 -0.11304333
-3.7310815 3.6567447 -0.11304333
-3.9223506 3.7151916 -0.11304333
-4.1136203 3.7736387 -0.11304333
-4.3048892 3.8320856 -0.11304333
-4.4961586 3.8905327 -0.11304333
-4.687428 3.9489799 -0.11304333
-4.8786974 4.0074267 -0.11304333
-5.0699668 4.0658736 -0.11304333
0.47684321 2.3709104 -0.11304333
0.47684321 2.3709104 0.086956672
0.47684321 2.3709104 0.28695667
0.47684321 2.3709104 0.48695669
0.47684321 2.3709104 0.6869567
0.47684321 2.3709104 0.88695669
0.47684321 2.3709104 1.0869567
0.47684321 2.3709104 1.2869567
0.47684321 2.3709104 1.4869567
0.47684321 2.3709104 1.6869566
0.47684321 2.3709104 1.8869567
0.47684321 2.3709104 2.0869567
0.47684321 2.3709104 2.2869568
0.47684321 2.3709104 2.4869566
0.47684321 2.3709104 2.6869566
0.47684321 2.3709104 2.8869567
0.47684321 2.3709104 3.0869567
0.47684321 2.3709104 3.2869568
0.47684321 2.3709104 3.4869566
0.47684321 2.3709104 3.6869566
0.47684321 2.3709104 3.8869567
0.47684321 2.3709104 4.0869565
0.47684321 2.3709104 4.2869568
0.47684321 2.3709104 4.4869566
0.47684321 2.3709104 4.6869569
0.47684321 2.3709104 4.8869567
0.47684321 2.3709104 5.0869565
0.47684321 2.3709104 5.2869568
0.47684321 2.3709104 5.4869566
0.47684321 2.3709104 5.6869569
0.47684321 2.3709104 5.8869567
0.47684321 2.3709104 6.0869565
0.47684321 2.3709104 6.2869568
0.47684321 2.3709104 6.4869566
0.47684321 2.3709104 6.6869569
0.47684321 2.3709104 6.8869567
0.47684321 2.3709104 7.0869565
0.47684321 2.3709104 7.2869568
0.47684321 2.3709104 7.4869566
0.47684321 2.3709104 7.6869569
0.47684321 2.3709104 7.8869567
0.47684321 2.3709104 8.086956
0.47684321 2.3709104 8.2869558
0.47684321 2.3709104 8.4869566
0.47684321 2.3709104 8.6869564
-0.16607393 0.26694801 -0.11304333
-0.10762692 0.45821732 -0.11304333
-0.049179908 0.64948666 -0.11304333
0.0092671104 0.84075594 -0.11304333
0.067714117 1.0320252 -0.11304333
0.12616113 1.2232945 -0.11304333
0.18460815 1.4145639 -0.11304333
0.24305515 1.6058332 -0.11304333
0.30150217 1.7971025 -0.11304333
0.35994917 1.9883717 -0.11304333
0.41839617 2.179641 -0.11304333
0.47684321 2.3709104 -0.11304333
0.53529024 2.5621798 -0.11304333
0.59373719 2.753449 -0.11304333
0.65218425 2.9447181 -0.11304333
0.53529024 2.5621798 -0.11304333
0.34402093 2.6206267 -0.11304333
0.15275162 2.6790738 -0.11304333
-0.038517695 2.7375207 -0.11304333
-0.22978699 2.7959678 -0.11304333
-0.42105627 2.8544149 -0.11304333
-0.61232561 2.9128618 -0.11304333
-0.80359489 2.9713089 -0.11304333
-0.99486423 3.0297558 -0.11304333
-1.1861335 3.088203 -0.11304333
-1.3774028 3.1466498 -0.11304333
-1.5686722 3.205097 -0.11304333
-1.7599415 3.2635438 -0.11304333
-1.9512106 3.321991 -0.11304333
-2.1424799 3.3804379 -0.11304333
-2.3337493 3.438885 -0.11304333
-2.5250187 3.4973319 -0.11304333
-2.7162881 3.555779 -0.11304333
-2.9075572 3.6142259 -0.11304333
-3.0988264 3.672673 -0.11304333
-3.2900958 3.7311201 -0.11304333
-3.481365 3.789567 -0.11304333
-3.6726346 3.8480141 -0.11304333
-3.8639038 3.906461 -0.11304333
-4.0551734 3.9649081 -0.11304333
-4.2464423 4.023355 -0.11304333
-4.4377117 4.0818019 -0.11304333
-4.6289811 4.1402493 -0.11304333
-4.82025 4.1986961 -0.11304333
-5.0115199 4.257143 -0.11304333
0.53529024 2.5621798 -0.11304333
0.53529024 2.5621798 0.086956672
0.53529024 2.5621798 0.28695667
0.53529024 2.5621798 0.48695669
0.53529024 2.5621798 0.6869567
0.53529024 2.5621798 0.88695669
0.53529024 2.5621798 1.0869567
0.53529024 2.5621798 1.2869567
0.53529024 2.5621798 1.4869567
0.53529024 2.5621798 1.6869566
0.53529024 2.5621798 1.8869567
0.53529024 2.5621798 2.0869567
0.53529024 2.5621798 2.2869568
0.53529024 2.5621798 2.4869566
0.53529024 2.5621798 2.6869566
0.53529024 2.5621798 2.8869567
0.53529024 2.5621798 3.0869567
0.53529024 2.5621798 3.2869568
0.53529024 2.5621798 3.4869566
0.53529024 2.5621798 3.6869566
0.53529024 2.5621798 3.8869567
0.53529024 2.5621798 4.0869565
0.53529024 2.5621798 4.2869568
0.53529024 2.5621798 4.4869566
0.53529024 2.5621798 4.6869569
0.53529024 2.5621798 4.8869567
0.53529024 2.5621798 5.0869565
0.53529024 2.5621798 5.2869568
0.53529024 2.5621798 5.4869566
0.53529024 2.5621798 5.6869569
0.53529024 2.5621798 5.8869567
0.53529024 2.5621798 6.0869565
0.53529024 2.5621798 6.2869568
0.53529024 2.5621798 6.4869566
0.53529024 2.5621798 6.6869569
0.53529024 2.5621798 6.8869567
0.53529024 2.5621798 7.0869565
0.53529024 2.5621798 7.2869568
0.53529024 2.5621798 7.4869566
0.53529024 2.5621798 7.6869569
0.53529024 2.5621798 7.8869567
0.53529024 2.5621798 8.086956
0.53529024 2.5621798 8.2869558
0.53529024 2.5621798 8.4869566
0.53529024 2.5621798 8.6869564
-0.16607393 0.26694801 -0.11304333
-0.10762692 0.45821732 -0.11304333
-0.049179908 0.64948666 -0.11304333
0.0092671104 0.84075594 -0.11304333
0.067714117 1.0320252 -0.11304333
0.12616113 1.2232945 -0.11304333
0.18460815 1.4145639 -0.11304333
0.24305515 1.6058332 -0.11304333
0.30150217 1.7971025 -0.11304333
0.35994917 1.9883717 -0.11304333
0.41839617 2.179641 -0.11304333
0.47684321 2.3709104 -0.11304333
0.53529024 2.5621798 -0.11304333
0.59373719 2.753449 -0.11304333
0.65218425 2.9447181 -0.11304333
0.59373719 2.753449 -0.11304333
0.40246788 2.8118958 -0.11304333
0.21119858 2.870343 -0.11304333
0.019929262 2.9287899 -0.11304333
-0.17134003 2.987237 -0.11304333
-0.36260933 3.0456839 -0.11304333
-0.55387866 3.104131 -0.11304333
-0.74514788 3.1625779 -0.11304333
-0.93641728 3.221025 -0.11304333
-1.1276865 3.2794719 -0.11304333
-1.3189559 3.337919 -0.11304333
-1.5102252 3.3963661 -0.11304333
-1.7014946 3.454813 -0.11304333
-1.8927636 3.5132601 -0.11304333
-2.084033 3.571707 -0.11304333
-2.2753024 3.6301541 -0.11304333
-2.4665718 3.688601 -0.11304333
-2.657841 3.7470481 -0.11304333
-2.8491101 3.805495 -0.11304333
-3.0403795 3.8639421 -0.11304333
-3.2316489 3.922389 -0.11304333
-3.4229181 3.9808362 -0.11304333
-3.6141875 4.0392833 -0.11304333
-3.8054566 4.0977302 -0.11304333
-3.9967263 4.156177 -0.11304333
-4.1879954 4.2146244 -0.11304333
-4.3792644 4.2730713 -0.11304333
-4.5705342 4.3315182 -0.11304333
-4.7618032 4.3899651 -0.11304333
-4.953073 4.4484124 -0.11304333
0.59373719 2.753449 -0.11304333
0.59373719 2.753449 0.086956672
0.59373719 2.753449 0.28695667
0.59373719 2.753449 0.48695669
0.59373719 2.753449 0.6869567
0.59373719 2.753449 0.88695669
0.59373719 2.753449 1.0869567
0.59373719 2.753449 1.2869567
0.59373719 2.753449 1.4869567
0.59373719 2.753449 1.6869566
0.59373719 2.753449 1.8869567
0.59373719 2.753449 2.0869567
0.59373719 2.753449 2.2869568
0.59373719 2.753449 2.4869566
0.59373719 2.753449 2.6869566
0.59373719 2.753449 2.8869567
0.59373719 2.753449 3.0869567
0.59373719 2.753449 3.2869568
0.59373719 2.753449 3.4869566
0.59373719 2.753449 3.6869566
0.59373719 2.753449 3.8869567
0.59373719 2.753449 4.0869565
0.59373719 2.753449 4.2869568
0.59373719 2.753449 4.4869566
0.59373719 2.753449 4.6869569
0.59373719 2.753449 4.8869567
0.59373719 2.753449 5.0869565
0.59373719 2.753449 5.2869568
0.59373719 2.753449 5.4869566
0.59373719 2.753449 5.6869569
0.59373719 2.753449 5.8869567
0.59373719 2.753449 6.0869565
0.59373719 2.753449 6.2869568
0.59373719 2.753449 6.4869566
0.59373719 2.753449 6.6869569
0.59373719 2.753449 6.8869567
0.59373719 2.753449 7.0869565
0.59373719 2.753449 7.2869568
0.59373719 2.753449 7.4869566
0.59373719 2.753449 7.6869569
0.59373719 2.753449 7.8869567
0.59373719 2.753449 8.086956
0.59373719 2.753449 8.2869558
0.59373719 2.753449 8.4869566
0.59373719 2.753449 8.6869564
-0.16607393 0.26694801 -0.11304333
-0.10762692 0.45821732 -0.11304333
-0.049179908 0.64948666 -0.11304333
0.0092671104 0.84075594 -0.11304333
0.067714117 1.0320252 -0.11304333
0.12616113 1.2232945 -0.11304333
0.18460815 1.4145639 -0.11304333
0.24305515 1.6058332 -0.11304333
0.30150217 1.7971025 -0.11304333
0.35994917 1.9883717 -0.11304333
0.41839617 2.179641 -0.11304333
0.47684321 2.3709104 -0.11304333
0.53529024 2.5621798 -0.11304333
0.59373719 2.753449 -0.11304333
0.65218425 2.9447181 -0.11304333
0.65218425 2.9447181 -0.11304333
0.46091491 3.0031652 -0.11304333
0.2696456 3.0616124 -0.11304333
0.078376286 3.1200593 -0.11304333
-0.11289301 3.1785064 -0.11304333
-0.30416229 3.2369533 -0.11304333
-0.49543166 3.2954004 -0.11304333
-0.68670088 3.3538473 -0.11304333
-0.87797022 3.4122944 -0.11304333
-1.0692395 3.4707413 -0.11304333
-1.2605088 3.5291884 -0.11304333
-1.4517782 3.5876353 -0.11304333
-1.6430476 3.6460824 -0.11304333
-1.8343166 3.7045293 -0.11304333
-2.0255859 3.7629764 -0.11304333
-2.2168553 3.8214235 -0.11304333
-2.4081247 3.8798704 -0.11304333
-2.5993941 3.9383175 -0.11304333
-2.7906632 3.9967644 -0.11304333
-2.9819324 4.0552115 -0.11304333
-3.1732018 4.1136584 -0.11304333
-3.364471 4.1721053 -0.11304333
-3.5557406 4.2305527 -0.11304333
-3.7470098 4.2889996 -0.11304333
-3.9382792 4.3474464 -0.11304333
-4.1295485 4.4058933 -0.11304333
-4.3208175 4.4643407 -0.11304333
-4.5120869 4.5227876 -0.11304333
-4.7033563 4.5812345 -0.11304333
-4.8946257 4.6396818 -0.11304333
0.65218425 2.9447181 -0.11304333
0.65218425 2.9447181 0.086956672
0.65218425 2.9447181 0.28695667
0.65218425 2.9447181 0.48695669
0.65218425 2.9447181 0.6869567
0.65218425 2.9447181 0.88695669
0.65218425 2.9447181 1.0869567
0.65218425 2.9447181 1.2869567
0.65218425 2.9447181 1.4869567
0.65218425 2.9447181 1.6869566
0.65218425 2.9447181 1.8869567
0.65218425 2.9447181 2.0869567
0.65218425 2.9447181 2.2869568
0.65218425 2.9447181 2.4869566
0.65218425 2.9447181 2.6869566
0.65218425 2.9447181 2.8869567
0.65218425 2.9447181 3.0869567
0.65218425 2.9447181 3.2869568
0.65218425 2.9447181 3.4869566
0.65218425 2.9447181 3.6869566
0.65218425 2.9447181 3.8869567
0.65218425 2.9447181 4.0869565
0.65218425 2.9447181 4.2869568
0.65218425 2.9447181 4.4869566
0.65218425 2.9447181 4.6869569
0.65218425 2.9447181 4.8869567
0.65218425 2.9447181 5.0869565
0.65218425 2.9447181 5.2869568
0.65218425 2.9447181 5.4869566
0.65218425 2.9447181 5.6869569
0.65218425 2.9447181 5.8869567
0.65218425 2.9447181 6.0869565
0.65218425 2.9447181 6.2869568
0.65218425 2.9447181 6.4869566
0.65218425 2.9447181 6.6869569
0.65218425 2.9447181 6.8869567
0.65218425 2.9447181 7.0869565
0.65218425 2.9447181 7.2869568
0.65218425 2.9447181 7.4869566
0.65218425 2.9447181 7.6869569
0.65218425 2.9447181 7.8869567
0.65218425 2.9447181 8.086956
0.65218425 2.9447181 8.2869558
0.65218425 2.9447181 8.4869566
0.65218425 2.9447181 8.6869564
-0.16607393 0.26694801 -0.11304333
-0.35734323 0.32539502 -0.11304333
-0.54861253 0.38384205 -0.11304333
-0.73988187 0.44228905 -0.11304333
-0.93115115 0.50073606 -0.11304333
-1.1224204 0.55918306 -0.11304333
-1.3136898 0.61763012 -0.11304333
-1.504959 0.67607707 -0.11304333
-1.6962284 0.73452413 -0.11304333
-1.8874977 0.79297113 -0.11304333
-2.0787671 0.85141814 -0.11304333
-2.2700362 0.90986514 -0.11304333
-2.4613056 0.9683122 -0.11304333
-2.6525748 1.0267591 -0.11304333
-2.8438442 1.0852062 -0.11304333
-3.0351136 1.1436532 -0.11304333
-3.2263827 1.2021003 -0.11304333
-3.4176521 1.2605473 -0.11304333
-3.6089213 1.3189942 -0.11304333
-3.8001907 1.3774413 -0.11304333
-3.9914601 1.4358883 -0.11304333
-4.1827292 1.4943352 -0.11304333
-4.3739986 1.5527823 -0.11304333
-4.565268 1.6112293 -0.11304333
-4.7565374 1.6696764 -0.11304333
-4.9478064 1.7281233 -0.11304333
-5.1390758 1.7865703 -0.11304333
-5.3303452 1.8450174 -0.11304333
-5.5216146 1.9034643 -0.11304333
-5.7128839 1.9619114 -0.11304333
-0.16607393 0.26694801 -0.11304333
-0.16607393 0.26694801 0.086956672
-0.16607393 0.26694801 0.28695667
-0.16607393 0.26694801 0.48695669
-0.16607393 0.26694801 0.6869567
-0.16607393 0.26694801 0.88695669
-0.16607393 0.26694801 1.0869567
-0.16607393 0.26694801 1.2869567
-0.16607393 0.26694801 1.4869567
-0.16607393 0.26694801 1.6869566
-0.16607393 0.26694801 1.8869567
-0.16607393 0.26694801 2.0869567
-0.16607393 0.26694801 2.2869568
-0.16607393 0.26694801 2.4869566
-0.16607393 0.26694801 2.6869566
-0.16607393 0.26694801 2.8869567
-0.16607393 0.26694801 3.0869567
-0.16607393 0.26694801 3.2869568
-0.16607393 0.26694801 3.4869566
-0.16607393 0.26694801 3.6869566
-0.16607393 0.26694801 3.8869567
-0.16607393 0.26694801 4.0869565
-0.16607393 0.26694801 4.2869568
-0.16607393 0.26694801 4.4869566
-0.16607393 0.26694801 4.6869569
-0.16607393 0.26694801 4.8869567
-0.16607393 0.26694801 5.0869565
-0.16607393 0.26694801 5.2869568
-0.16607393 0.26694801 5.4869566
-0.16607393 0.26694801 5.6869569
-0.16607393 0.26694801 5.8869567
-0.16607393 0.26694801 6.0869565
-0.16607393 0.26694801 6.2869568
-0.16607393 0.26694801 6.4869566
-0.16607393 0.26694801 6.6869569
-0.16607393 0.26694801 6.8869567
-0.16607393 0.26694801 7.0869565
-0.16607393 0.26694801 7.2869568
-0.16607393 0.26694801 7.4869566
-0.16607393 0.26694801 7.6869569
-0.16607393 0.26694801 7.8869567
-0.16607393 0.26694801 8.086956
-0.16607393 0.26694801 8.2869558
-0.16607393 0.26694801 8.4869566
-0.16607393 0.26694801 8.6869564
-0.16607393 0.26694801 -0.11304333
-0.35734323 0.32539502 -0.11304333
-0.54861253 0.38384205 -0.11304333
-0.73988187 0.44228905 -0.11304333
-0.93115115 0.50073606 -0.11304333
-1.1224204 0.55918306 -0.11304333
-1.3136898 0.61763012 -0.11304333
-1.504959 0.67607707 -0.11304333
-1.6962284 0.73452413 -0.11304333
-1.8874977 0.79297113 -0.11304333
-2.0787671 0.85141814 -0.11304333
-2.2700362 0.90986514 -0.11304333
-2.4613056 0.9683122 -0.11304333
-2.6525748 1.0267591 -0.11304333
-2.8438442 1.0852062 -0.11304333
-3.0351136 1.1436532 -0.11304333
-3.2263827 1.2021003 -0.11304333
-3.4176521 1.2605473 -0.11304333
-3.6089213 1.3189942 -0.11304333
-3.8001907 1.3774413 -0.11304333
-3.9914601 1.4358883 -0.11304333
-4.1827292 1.4943352 -0.11304333
-4.3739986 1.5527823 -0.11304333
-4.565268 1.6112293 -0.11304333
-4.7565374 1.6696764 -0.11304333
-4.9478064 1.7281233 -0.11304333
-5.1390758 1.7865703 -0.11304333
-5.3303452 1.8450174 -0.11304333
-5.5216146 1.9034643 -0.11304333
-5.7128839 1.9619114 -0.11304333
-0.35734323 0.32539502 -0.11304333
-0.35734323 0.32539502 0.086956672
-0.35734323 0.32539502 0.28695667
-0.35734323 0.32539502 0.48695669
-0.35734323 0.32539502 0.6869567
-0.35734323 0.32539502 0.88695669
-0.35734323 0.32539502 1.0869567
-0.35734323 0.32539502 1.2869567
-0.35734323 0.32539502 1.4869567
-0.35734323 0.32539502 1.6869566
-0.35734323 0.32539502 1.8869567
-0.35734323 0.32539502 2.0869567
-0.35734323 0.32539502 2.2869568
-0.35734323 0.32539502 2.4869566
-0.35734323 0.32539502 2.6869566
-0.35734323 0.32539502 2.8869567
-0.35734323 0.32539502 3.0869567
-0.35734323 0.32539502 3.2869568
-0.35734323 0.32539502 3.4869566
-0.35734323 0.32539502 3.6869566
-0.35734323 0.32539502 3.8869567
-0.35734323 0.32539502 4.0869565
-0.35734323 0.32539502 4.2869568
-0.35734323 0.32539502 4.4869566
-0.35734323 0.32539502 4.6869569
-0.35734323 0.32539502 4.8869567
-0.35734323 0.32539502 5.0869565
-0.35734323 0.32539502 5.2869568
-0.35734323 0.32539502 5.4869566
-0.35734323 0.32539502 5.6869569
-0.35734323 0.32539502 5.8869567
-0.35734323 0.32539502 6.0869565
-0.35734323 0.32539502 6.2869568
-0.35734323 0.32539502 6.4869566
-0.35734323 0.32539502 6.6869569
-0.35734323 0.32539502 6.8869567
-0.35734323 0.32539502 7.0869565
-0.35734323 0.32539502 7.2869568
-0.35734323 0.32539502 7.4869566
-0.35734323 0.32539502 7.6869569
-0.35734323 0.32539502 7.8869567
-0.35734323 0.32539502 8.086956
-0.35734323 0.32539502 8.2869558
-0.35734323 0.32539502 8.4869566
-0.35734323 0.32539502 8.6869564
-0.16607393 0.26694801 -0.11304333
-0.35734323 0.32539502 -0.11304333
-0.54861253 0.38384205 -0.11304333
-0.73988187 0.44228905 -0.11304333
-0.93115115 0.50073606 -0.11304333
-1.1224204 0.55918306 -0.11304333
-1.3136898 0.61763012 -0.11304333
-1.504959 0.67607707 -0.11304333
-1.6962284 0.73452413 -0.11304333
-1.8874977 0.79297113 -0.11304333
-2.0787671 0.85141814 -0.11304333
-2.2700362 0.90986514 -0.11304333
-2.4613056 0.9683122 -0.11304333
-2.6525748 1.0267591 -0.11304333
-2.8438442 1.0852062 -0.11304333
-3.0351136 1.1436532 -0.11304333
-3.2263827 1.2021003 -0.11304333
-3.4176521 1.2605473 -0.11304333
-3.6089213 1.3189942 -0.11304333
-3.8001907 1.3774413 -0.11304333
-3.9914601 1.4358883 -0.11304333
-4.1827292 1.4943352 -0.11304333
-4.3739986 1.5527823 -0.11304333
-4.565268 1.6112293 -0.11304333
-4.7565374 1.6696764 -0.11304333
-4.9478064 1.7281233 -0.11304333
-5.1390758 1.7865703 -0.11304333
-5.3303452 1.8450174 -0.11304333
-5.5216146 1.9034643 -0.11304333
-5.7128839 1.9619114 -0.11304333
-0.54861253 0.38384205 -0.11304333
-0.54861253 0.38384205 0.086956672
-0.54861253 0.38384205 0.28695667
-0.54861253 0.38384205 0.48695669
-0.54861253 0.38384205 0.6869567
-0.54861253 0.38384205 0.88695669
-0.54861253 0.38384205 1.0869567
-0.54861253 0.38384205 1.2869567
-0.54861253 0.38384205 1.4869567
-0.54861253 0.38384205 1.6869566
-0.54861253 0.38384205 1.8869567
-0.54861253 0.38384205 2.0869567
-0.54861253 0.38384205 2.2869568
-0.54861253 0.38384205 2.4869566
-0.54861253 0.38384205 2.6869566
-0.54861253 0.38384205 2.8869567
-0.54861253 0.38384205 3.0869567
-0.54861253 0.38384205 3.2869568
-0.54861253 0.38384205 3.4869566
-0.54861253 0.38384205 3.6869566
-0.54861253 0.38384205 3.8869567
-0.54861253 0.38384205 4.0869565
-0.54861253 0.38384205 4.2869568
-0.54861253 0.38384205 4.4869566
-0.54861253 0.38384205 4.6869569
-0.54861253 0.38384205 4.8869567
-0.54861253 0.38384205 5.0869565
-0.54861253 0.38384205 5.2869568
-0.54861253 0.38384205 5.4869566
-0.54861253 0.38384205 5.6869569
-0.54861253 0.38384205 5.8869567
-0.54861253 0.38384205 6.0869565
-0.54861253 0.38384205 6.2869568
-0.54861253 0.38384205 6.4869566
-0.54861253 0.38384205 6.6869569
-0.54861253 0.38384205 6.8869567
-0.54861253 0.38384205 7.0869565
-0.54861253 0.38384205 7.2869568
-0.54861253 0.38384205 7.4869566
-0.54861253 0.38384205 7.6869569
-0.54861253 0.38384205 7.8869567
-0.54861253 0.38384205 8.086956
-0.54861253 0.38384205 8.2869558
-0.54861253 0.38384205 8.4869566
-0.54861253 0.38384205 8.6869564
-0.16607393 0.26694801 -0.11304333
-0.35734323 0.32539502 -0.11304333
-0.54861253 0.38384205 -0.11304333
-0.73988187 0.44228905 -0.11304333
-0.93115115 0.50073606 -0.11304333
-1.1224204 0.55918306 -0.11304333
-1.3136898 0.61763012 -0.11304333
-1.504959 0.67607707 -0.11304333
-1.6962284 0.73452413 -0.11304333
-1.8874977 0.79297113 -0.11304333
-2.0787671 0.85141814 -0.11304333
-2.2700362 0.90986514 -0.11304333
-2.4613056 0.9683122 -0.11304333
-2.6525748 1.0267591 -0.11304333
-2.8438442 1.0852062 -0.11304333
-3.0351136 1.1436532 -0.11304333
-3.2263827 1.2021003 -0.11304333
-3.4176521 1.2605473 -0.11304333
-3.6089213 1.3189942 -0.11304333
-3.8001907 1.3774413 -0.11304333
-3.9914601 1.4358883 -0.11304333
-4.1827292 1.4943352 -0.11304333
-4.3739986 1.5527823 -0.11304333
-4.565268 1.6112293 -0.11304333
-4.7565374 1.6696764 -0.11304333
-4.9478064 1.7281233 -0.11304333
-5.1390758 1.7865703 -0.11304333
-5.3303452 1.8450174 -0.11304333
-5.5216146 1.9034643 -0.11304333
-5.7128839 1.9619114 -0.11304333
-0.73988187 0.44228905 -0.11304333
-0.73988187 0.44228905 0.086956672
-0.73988187 0.44228905 0.28695667
-0.73988187 0.44228905 0.48695669
-0.73988187 0.44228905 0.6869567
-0.73988187 0.44228905 0.88695669
-0.73988187 0.44228905 1.0869567
-0.73988187 0.44228905 1.2869567
-0.73988187 0.44228905 1.4869567
-0.73988187 0.44228905 1.6869566
-0.73988187 0.44228905 1.8869567
-0.73988187 0.44228905 2.0869567
-0.73988187 0.44228905 2.2869568
-0.73988187 0.44228905 2.4869566
-0.73988187 0.44228905 2.6869566
-0.73988187 0.44228905 2.8869567
-0.73988187 0.44228905 3.0869567
-0.73988187 0.44228905 3.2869568
-0.73988187 0.44228905 3.4869566
-0.73988187 0.44228905 3.6869566
-0.73988187 0.44228905 3.8869567
-0.73988187 0.44228905 4.0869565
-0.73988187 0.44228905 4.2869568
-0.73988187 0.44228905 4.4869566
-0.73988187 0.44228905 4.6869569
-0.73988187 0.44228905 4.8869567
-0.73988187 0.44228905 5.0869565
-0.73988187 0.44228905 5.2869568
-0.73988187 0.44228905 5.4869566
-0.73988187 0.44228905 5.6869569
-0.73988187 0.44228905 5.8869567
-0.73988187 0.44228905 6.0869565
-0.73988187 0.44228905 6.2869568
-0.73988187 0.44228905 6.4869566
-0.73988187 0.44228905 6.6869569
-0.73988187 0.44228905 6.8869567
-0.73988187 0.44228905 7.0869565
-0.73988187 0.44228905 7.2869568
-0.73988187 0.44228905 7.4869566
-0.73988187 0.44228905 7.6869569
-0.73988187 0.44228905 7.8869567
-0.73988187 0.44228905 8.086956
-0.73988187 0.44228905 8.2869558
-0.73988187 0.44228905 8.4869566
-0.73988187 0.44228905 8.6869564
-0.16607393 0.26694801 -0.11304333
-0.35734323 0.32539502 -0.11304333
-0.54861253 0.38384205 -0.11304333
-0.73988187 0.44228905 -0.11304333
-0.93115115 0.50073606 -0.11304333
-1.1224204 0.55918306 -0.11304333
-1.3136898 0.61763012 -0.11304333
-1.504959 0.67607707 -0.11304333
-1.6962284 0.73452413 -0.11304333
-1.8874977 0.79297113 -0.11304333
-2.0787671 0.85141814 -0.11304333
-2.2700362 0.90986514 -0.11304333
-2.4613056 0.9683122 -0.11304333
-2.6525748 1.0267591 -0.11304333
-2.8438442 1.0852062 -0.11304333
-3.0351136 1.1436532 -0.11304333
-3.2263827 1.2021003 -0.11304333
-3.4176521 1.2605473 -0.11304333
-3.6089213 1.3189942 -0.11304333
-3.8001907 1.3774413 -0.11304333
-3.9914601 1.4358883 -0.11304333
-4.1827292 1.4943352 -0.11304333
-4.3739986 1.5527823 -0.11304333
-4.565268 1.6112293 -0.11304333
-4.7565374 1.6696764 -0.11304333
-4.9478064 1.7281233 -0.11304333
-5.1390758 1.7865703 -0.11304333
-5.3303452 1.8450174 -0.11304333
-5.5216146 1.9034643 -0.11304333
-5.7128839 1.9619114 -0.11304333
-0.93115115 0.50073606 -0.11304333
-0.93115115 0.50073606 0.086956672
-0.93115115 0.50073606 0.28695667
-0.93115115 0.50073606 0.48695669
-0.93115115 0.50073606 0.6869567
-0.93115115 0.50073606 0.88695669
-0.93115115 0.50073606 1.0869567
-0.93115115 0.50073606 1.2869567
-0.93115115 0.50073606 1.4869567
-0.93115115 0.50073606 1.6869566
-0.93115115 0.50073606 1.8869567
-0.93115115 0.50073606 2.0869567
-0.93115115 0.50073606 2.2869568
-0.93115115 0.50073606 2.4869566
-0.93115115 0.50073606 2.6869566
-0.93115115 0.50073606 2.8869567
-0.93115115 0.50073606 3.0869567
-0.93115115 0.50073606 3.2869568
-0.93115115 0.50073606 3.4869566
-0.93115115 0.50073606 3.6869566
-0.93115115 0.50073606 3.8869567
-0.93115115 0.50073606 4.0869565
-0.93115115 0.50073606 4.2869568
-0.93115115 0.50073606 4.4869566
-0.93115115 0.50073606 4.6869569
-0.93115115 0.50073606 4.8869567
-0.93115115 0.50073606 5.0869565
-0.93115115 0.50073606 5.2869568
-0.93115115 0.50073606 5.4869566
-0.93115115 0.50073606 5.6869569
-0.93115115 0.50073606 5.8869567
-0.93115115 0.50073606 6.0869565
-0.93115115 0.50073606 6.2869568
-0.93115115 0.50073606 6.4869566
-0.93115115 0.50073606 6.6869569
-0.93115115 0.50073606 6.8869567
-0.93115115 0.50073606 7.0869565
-0.93115115 0.50073606 7.2869568
-0.93115115 0.50073606 7.4869566
-0.93115115 0.50073606 7.6869569
-0.93115115 0.50073606 7.8869567
-0.93115115 0.50073606 8.086956
-0.93115115 0.50073606 8.2869558
-0.93115115 0.50073606 8.4869566
-0.93115115 0.50073606 8.6869564
-0.16607393 0.26694801 -0.11304333
-0.35734323 0.32539502 -0.11304333
-0.54861253 0.38384205 -0.11304333
-0.73988187 0.44228905 -0.11304333
-0.93115115 0.50073606 -0.11304333
-1.1224204 0.55918306 -0.11304333
-1.3136898 0.61763012 -0.11304333
-1.504959 0.67607707 -0.11304333
-1.6962284 0.73452413 -0.11304333
-1.8874977 0.79297113 -0.11304333
-2.0787671 0.85141814 -0.11304333
-2.2700362 0.90986514 -0.11304333
-2.4613056 0.9683122 -0.11304333
-2.6525748 1.0267591 -0.11304333
-2.8438442 1.0852062 -0.11304333
-3.0351136 1.1436532 -0.11304333
-3.2263827 1.2021003 -0.11304333
-3.4176521 1.2605473 -0.11304333
-3.6089213 1.3189942 -0.11304333
-3.8001907 1.3774413 -0.11304333
-3.9914601 1.4358883 -0.11304333
-4.1827292 1.4943352 -0.11304333
-4.3739986 1.5527823 -0.11304333
-4.565268 1.6112293 -0.11304333
-4.7565374 1.6696764 -0.11304333
-4.9478064 1.7281233 -0.11304333
-5.1390758 1.7865703 -0.11304333
-5.3303452 1.8450174 -0.11304333
-5.5216146 1.9034643 -0.11304333
-5.7128839 1.9619114 -0.11304333
-1.1224204 0.55918306 -0.11304333
-1.1224204 0.55918306 0.086956672
-1.1224204 0.55918306 0.28695667
-1.1224204 0.55918306 0.48695669
-1.1224204 0.55918306 0.6869567
-1.1224204 0.55918306 0.88695669
-1.1224204 0.55918306 1.0869567
-1.1224204 0.55918306 1.2869567
-1.1224204 0.55918306 1.4869567
-1.1224204 0.55918306 1.6869566
-1.1224204 0.55918306 1.8869567
-1.1224204 0.55918306 2.0869567
-1.1224204 0.55918306 2.2869568
-1.1224204 0.55918306 2.4869566
-1.1224204 0.55918306 2.6869566
-1.1224204 0.55918306 2.8869567
-1.1224204 0.55918306 3.0869567
-1.1224204 0.55918306 3.2869568
-1.1224204 0.55918306 3.4869566
-1.1224204 0.55918306 3.6869566
-1.1224204 0.55918306 3.8869567
-1.1224204 0.55918306 4.0869565
-1.1224204 0.55918306 4.2869568
-1.1224204 0.55918306 4.4869566
-1.1224204 0.55918306 4.6869569
-1.1224204 0.55918306 4.8869567
-1.1224204 0.55918306 5.0869565
-1.1224204 0.55918306 5.2869568
-1.1224204 0.55918306 5.4869566
-1.1224204 0.55918306 5.6869569
-1.1224204 0.55918306 5.8869567
-1.1224204 0.55918306 6.0869565
-1.1224204 0.55918306 6.2869568
-1.1224204 0.55918306 6.4869566
-1.1224204 0.55918306 6.6869569
-1.1224204 0.55918306 6.8869567
-1.1224204 0.55918306 7.0869565
-1.1224204 0.55918306 7.2869568
-1.1224204 0.55918306 7.4869566
-1.1224204 0.55918306 7.6869569
-1.1224204 0.55918306 7.8869567
-1.1224204 0.55918306 8.086956
-1.1224204 0.55918306 8.2869558
-1.1224204 0.55918306 8.4869566
-1.1224204 0.55918306 8.6869564
-0.16607393 0.26694801 -0.11304333
-0.35734323 0.32539502 -0.11304333
-0.54861253 0.38384205 -0.11304333
-0.73988187 0.44228905 -0.11304333
-0.93115115 0.50073606 -0.11304333
-1.1224204 0.55918306 -0.11304333
-1.3136898 0.61763012 -0.11304333
-1.504959 0.67607707 -0.11304333
-1.6962284 0.73452413 -0.11304333
-1.8874977 0.79297113 -0.11304333
-2.0787671 0.85141814 -0.11304333
-2.2700362 0.90986514 -0.11304333
-2.4613056 0.9683122 -0.11304333
-2.6525748 1.0267591 -0.11304333
-2.8438442 1.0852062 -0.11304333
-3.0351136 1.1436532 -0.11304333
-3.2263827 1.2021003 -0.11304333
-3.4176521 1.2605473 -0.11304333
-3.6089213 1.3189942 -0.11304333
-3.8001907 1.3774413 -0.11304333
-3.9914601 1.4358883 -0.11304333
-4.1827292 1.4943352 -0.11304333
-4.3739986 1.5527823 -0.11304333
-4.565268 1.6112293 -0.11304333
-4.7565374 1.6696764 -0.11304333
-4.9478064 1.7281233 -0.11304333
-5.1390758 1.7865703 -0.11304333
-5.3303452 1.8450174 -0.11304333
-5.5216146 1.9034643 -0.11304333
-5.7128839 1.9619114 -0.11304333
-1.3136898 0.61763012 -0.11304333
-1.3136898 0.61763012 0.086956672
-1.3136898 0.61763012 0.28695667
-1.3136898 0.61763012 0.48695669
-1.3136898 0.61763012 0.6869567
-1.3136898 0.61763012 0.88695669
-1.3136898 0.61763012 1.0869567
-1.3136898 0.61763012 1.2869567
-1.3136898 0.61763012 1.4869567
-1.3136898 0.61763012 1.6869566
-1.3136898 0.61763012 1.8869567
-1.3136898 0.61763012 2.0869567
-1.3136898 0.61763012 2.2869568
-1.3136898 0.61763012 2.4869566
-1.3136898 0.61763012 2.6869566
-1.3136898 0.61763012 2.8869567
-1.3136898 0.61763012 3.0869567
-1.3136898 0.61763012 3.2869568
-1.3136898 0.61763012 3.4869566
-1.3136898 0.61763012 3.6869566
-1.3136898 0.61763012 3.8869567
-1.3136898 0.61763012 4.0869565
-1.3136898 0.61763012 4.2869568
-1.3136898 0.61763012 4.4869566
-1.3136898 0.61763012 4.6869569
-1.3136898 0.61763012 4.8869567
-1.3136898 0.61763012 5.0869565
-1.3136898 0.61763012 5.2869568
-1.3136898 0.61763012 5.4869566
-1.3136898 0.61763012 5.6869569
-1.3136898 0.61763012 5.8869567
-1.3136898 0.61763012 6.0869565
-1.3136898 0.61763012 6.2869568
-1.3136898 0.61763012 6.4869566
-1.3136898 0.61763012 6.6869569
-1.3136898 0.61763012 6.8869567
-1.3136898 0.61763012 7.0869565
-1.3136898 0.61763012 7.2869568
-1.3136898 0.61763012 7.4869566
-1.3136898 0.61763012 7.6869569
-1.3136898 0.61763012 7.8869567
-1.3136898 0.61763012 8.086956
-1.3136898 0.61763012 8.2869558
-1.3136898 0.61763012 8.4869566
-1.3136898 0.61763012 8.6869564
-0.16607393 0.26694801 -0.11304333
-0.35734323 0.32539502 -0.11304333
-0.54861253 0.38384205 -0.11304333
-0.73988187 0.44228905 -0.11304333
-0.93115115 0.50073606 -0.11304333
-1.1224204 0.55918306 -0.11304333
-1.3136898 0.61763012 -0.11304333
-1.504959 0.67607707 -0.11304333
-1.6962284 0.73452413 -0.11304333
-1.8874977 0.79297113 -0.11304333
-2.0787671 0.85141814 -0.11304333
-2.2700362 0.90986514 -0.11304333
-2.4613056 0.9683122 -0.11304333
-2.6525748 1.0267591 -0.11304333
-2.8438442 1.0852062 -0.11304333
-3.0351136 1.1436532 -0.11304333
-3.2263827 1.2021003 -0.11304333
-3.4176521 1.2605473 -0.11304333
-3.6089213 1.3189942 -0.11304333
-3.8001907 1.3774413 -0.11304333
-3.9914601 1.4358883 -0.11304333
-4.1827292 1.4943352 -0.11304333
-4.3739986 1.5527823 -0.11304333
-4.565268 1.6112293 -0.11304333
-4.7565374 1.6696764 -0.11304333
