# .PCD v0.7 - Point Cloud Data file format
VERSION 0.7
FIELDS x y z
SIZE 4 4 4
TYPE F F F
COUNT 1 1 1
WIDTH 1458
HEIGHT 1
VIEWPOINT 0 0 0 1 0 0 0
POINTS 1458
DATA ascii
0.0076450715 0.69103849 8.7203531
-0.4858872 0.061414845 -0.079647213
-0.36250412 0.21882075 -0.079647213
-0.23912106 0.37622666 -0.079647213
-0.11573799 0.53363258 -0.079647213
0.0076450715 0.69103849 -0.079647213
0.13102813 0.84844434 -0.079647213
0.25441122 1.0058503 -0.079647213
0.37779427 1.1632562 -0.079647213
0.50117737 1.3206621 -0.079647213
0.62456036 1.478068 -0.079647213
0.74794346 1.6354738 -0.079647213
0.87132657 1.7928798 -0.079647213
0.99470967 1.9502858 -0.079647213
1.1180927 2.1076915 -0.079647213
1.2414757 2.2650974 -0.079647213
0.13102813 0.84844434 -0.079647213
-0.026377773 0.97182745 -0.079647213
-0.18378368 1.0952106 -0.079647213
-0.34118959 1.2185936 -0.079647213
-0.49859551 1.3419766 -0.079647213
-0.65600139 1.4653597 -0.079647213
-0.8134073 1.5887429 -0.079647213
-0.97081316 1.7121258 -0.079647213
-1.1282191 1.8355089 -0.079647213
-1.285625 1.958892 -0.079647213
-1.443031 2.0822752 -0.079647213
-1.6004368 2.2056582 -0.079647213
-1.7578428 2.3290412 -0.079647213
-1.9152485 2.4524243 -0.079647213
-2.0726545 2.5758073 -0.079647213
-2.2300603 2.6991904 -0.079647213
-2.3874664 2.8225734 -0.079647213
-2.5448723 2.9459565 -0.079647213
-2.7022781 3.0693395 -0.079647213
-2.859684 3.1927226 -0.079647213
-3.0170898 3.3161058 -0.079647213
-3.1744957 3.4394886 -0.079647213
-3.3319018 3.5628719 -0.079647213
-3.4893076 3.686255 -0.079647213
-3.6467137 3.809638 -0.079647213
-3.8041193 3.9330211 -0.079647213
-3.9615252 4.0564041 -0.079647213
-4.1189313 4.1797872 -0.079647213
-4.2763371 4.3031702 -0.079647213
-4.433743 4.4265532 -0.079647213
0.13102813 0.84844434 -0.079647213
0.13102813 0.84844434 0.12035279
0.13102813 0.84844434 0.32035279
0.13102813 0.84844434 0.52035284
0.13102813 0.84844434 0.72035283
0.13102813 0.84844434 0.92035282
0.13102813 0.84844434 1.1203529
0.13102813 0.84844434 1.3203528
0.13102813 0.84844434 1.5203528
0.13102813 0.84844434 1.7203528
0.13102813 0.84844434 1.9203528
0.13102813 0.84844434 2.1203527
0.13102813 0.84844434 2.3203528
0.13102813 0.84844434 2.5203526
0.13102813 0.84844434 2.7203526
0.13102813 0.84844434 2.9203527
0.13102813 0.84844434 3.1203527
0.13102813 0.84844434 3.3203528
0.13102813 0.84844434 3.5203526
0.13102813 0.84844434 3.7203526
0.13102813 0.84844434 3.9203527
0.13102813 0.84844434 4.1203527
0.13102813 0.84844434 4.320353
0.13102813 0.84844434 4.5203528
0.13102813 0.84844434 4.7203531
0.13102813 0.84844434 4.9203529
0.13102813 0.84844434 5.1203527
0.13102813 0.84844434 5.320353
0.13102813 0.84844434 5.5203528
0.13102813 0.84844434 5.7203531
0.13102813 0.84844434 5.9203529
0.13102813 0.84844434 6.1203527
0.13102813 0.84844434 6.320353
0.13102813 0.84844434 6.5203528
0.13102813 0.84844434 6.7203531
0.13102813 0.84844434 6.9203529
0.13102813 0.84844434 7.1203527
0.13102813 0.84844434 7.320353
0.13102813 0.84844434 7.5203528
0.13102813 0.84844434 7.7203531
0.13102813 0.84844434 7.9203529
0.13102813 0.84844434 8.1203527
0.13102813 0.84844434 8.3203526
0.13102813 0.84844434 8.5203533
0.13102813 0.84844434 8.7203531
-0.4858872 0.061414845 -0.079647213
-0.36250412 0.21882075 -0.079647213
-0.23912106 0.37622666 -0.079647213
-0.11573799 0.53363258 -0.079647213
0.0076450715 0.69103849 -0.079647213
0.13102813 0.84844434 -0.079647213
0.25441122 1.0058503 -0.079647213
0.37779427 1.1632562 -0.079647213
0.50117737 1.3206621 -0.079647213
0.62456036 1.478068 -0.079647213
0.74794346 1.6354738 -0.079647213
0.87132657 1.7928798 -0.079647213
0.99470967 1.9502858 -0.079647213
1.1180927 2.1076915 -0.079647213
1.2414757 2.2650974 -0.079647213
0.25441122 1.0058503 -0.079647213
0.097005323 1.1292334 -0.079647213
-0.060400583 1.2526164 -0.079647213
-0.2178065 1.3759996 -0.079647213
-0.3752124 1.4993826 -0.079647213
-0.53261828 1.6227657 -0.079647213
-0.69002426 1.7461487 -0.079647213
-0.84743005 1.8695318 -0.079647213
-1.004836 1.9929149 -0.079647213
-1.1622418 2.116298 -0.079647213
-1.3196478 2.239681 -0.079647213
-1.4770538 2.3630641 -0.079647213
-1.6344597 2.4864471 -0.079647213
-1.7918655 2.6098301 -0.079647213
-1.9492714 2.7332132 -0.079647213
-2.1066773 2.8565962 -0.079647213
-2.2640834 2.9799795 -0.079647213
-2.4214892 3.1033626 -0.079647213
-2.5788949 3.2267454 -0.079647213
-2.7363009 3.3501287 -0.079647213
-2.8937068 3.4735117 -0.079647213
-3.0511127 3.5968945 -0.079647213
-3.2085187 3.7202778 -0.079647213
-3.3659246 3.8436608 -0.079647213
-3.5233307 3.9670441 -0.079647213
-3.6807363 4.0904269 -0.079647213
-3.8381422 4.21381 -0.079647213
-3.9955482 4.337193 -0.079647213
-4.1529541 4.4605761 -0.079647213
-4.31036 4.5839596 -0.079647213
0.25441122 1.0058503 -0.079647213
0.25441122 1.0058503 0.12035279
0.25441122 1.0058503 0.32035279
0.25441122 1.0058503 0.52035284
0.25441122 1.0058503 0.72035283
0.25441122 1.0058503 0.92035282
0.25441122 1.0058503 1.1203529
0.25441122 1.0058503 1.3203528
0.25441122 1.0058503 1.5203528
0.25441122 1.0058503 1.7203528
0.25441122 1.0058503 1.9203528
0.25441122 1.0058503 2.1203527
0.25441122 1.0058503 2.3203528
0.25441122 1.0058503 2.5203526
0.25441122 1.0058503 2.7203526
0.25441122 1.0058503 2.9203527
0.25441122 1.0058503 3.1203527
0.25441122 1.0058503 3.3203528
0.25441122 1.0058503 3.5203526
0.25441122 1.0058503 3.7203526
0.25441122 1.0058503 3.9203527
0.25441122 1.0058503 4.1203527
0.25441122 1.0058503 4.320353
0.25441122 1.0058503 4.5203528
0.25441122 1.0058503 4.7203531
0.25441122 1.0058503 4.9203529
0.25441122 1.0058503 5.1203527
0.25441122 1.0058503 5.320353
0.25441122 1.0058503 5.5203528
0.25441122 1.0058503 5.7203531
0.25441122 1.0058503 5.9203529
0.25441122 1.0058503 6.1203527
0.25441122 1.0058503 6.320353
0.25441122 1.0058503 6.5203528
0.25441122 1.0058503 6.7203531
0.25441122 1.0058503 6.9203529
0.25441122 1.0058503 7.1203527
0.25441122 1.0058503 7.320353
0.25441122 1.0058503 7.5203528
0.25441122 1.0058503 7.7203531
0.25441122 1.0058503 7.9203529
0.25441122 1.0058503 8.1203527
0.25441122 1.0058503 8.3203526
0.25441122 1.0058503 8.5203533
0.25441122 1.0058503 8.7203531
-0.4858872 0.061414845 -0.079647213
-0.36250412 0.21882075 -0.079647213
-0.23912106 0.37622666 -0.079647213
-0.11573799 0.53363258 -0.079647213
0.0076450715 0.69103849 -0.079647213
0.13102813 0.84844434 -0.079647213
0.25441122 1.0058503 -0.079647213
0.37779427 1.1632562 -0.079647213
0.50117737 1.3206621 -0.079647213
0.62456036 1.478068 -0.079647213
0.74794346 1.6354738 -0.079647213
0.87132657 1.7928798 -0.079647213
0.99470967 1.9502858 -0.079647213
1.1180927 2.1076915 -0.079647213
1.2414757 2.2650974 -0.079647213
0.37779427 1.1632562 -0.079647213
0.22038835 1.2866392 -0.079647213
0.06298244 1.4100223 -0.079647213
-0.094423473 1.5334054 -0.079647213
-0.25182936 1.6567885 -0.079647213
-0.40923527 1.7801715 -0.079647213
-0.56664121 1.9035546 -0.079647213
-0.72404706 2.0269377 -0.079647213
-0.88145298 2.1503208 -0.079647213
-1.0388589 2.2737038 -0.079647213
-1.1962647 2.3970869 -0.079647213
-1.3536707 2.5204699 -0.079647213
-1.5110767 2.6438529 -0.079647213
-1.6684824 2.767236 -0.079647213
-1.8258884 2.890619 -0.079647213
-1.9832942 3.0140021 -0.079647213
-2.1407003 3.1373854 -0.079647213
-2.2981062 3.2607684 -0.079647213
-2.455512 3.3841512 -0.079647213
-2.6129179 3.5075345 -0.079647213
-2.7703238 3.6309175 -0.079647213
-2.9277296 3.7543004 -0.079647213
-3.0851357 3.8776836 -0.079647213
-3.2425416 4.0010667 -0.079647213
-3.3999476 4.1244497 -0.079647213
-3.5573533 4.2478328 -0.079647213
-3.7147591 4.3712158 -0.079647213
-3.8721652 4.4945989 -0.079647213
-4.0295711 4.6179819 -0.079647213
-4.1869769 4.7413654 -0.079647213
0.37779427 1.1632562 -0.079647213
0.37779427 1.1632562 0.12035279
0.37779427 1.1632562 0.32035279
0.37779427 1.1632562 0.52035284
0.37779427 1.1632562 0.72035283
0.37779427 1.1632562 0.92035282
0.37779427 1.1632562 1.1203529
0.37779427 1.1632562 1.3203528
0.37779427 1.1632562 1.5203528
0.37779427 1.1632562 1.7203528
0.37779427 1.1632562 1.9203528
0.37779427 1.1632562 2.1203527
0.37779427 1.1632562 2.3203528
0.37779427 1.1632562 2.5203526
0.37779427 1.1632562 2.7203526
0.37779427 1.1632562 2.9203527
0.37779427 1.1632562 3.1203527
0.37779427 1.1632562 3.3203528
0.37779427 1.1632562 3.5203526
0.37779427 1.1632562 3.7203526
0.37779427 1.1632562 3.9203527
0.37779427 1.1632562 4.1203527
0.37779427 1.1632562 4.320353
0.37779427 1.1632562 4.5203528
0.37779427 1.1632562 4.7203531
0.37779427 1.1632562 4.9203529
0.37779427 1.1632562 5.1203527
0.37779427 1.1632562 5.320353
0.37779427 1.1632562 5.5203528
0.37779427 1.1632562 5.7203531
0.37779427 1.1632562 5.9203529
0.37779427 1.1632562 6.1203527
0.37779427 1.1632562 6.320353
0.37779427 1.1632562 6.5203528
0.37779427 1.1632562 6.7203531
0.37779427 1.1632562 6.9203529
0.37779427 1.1632562 7.1203527
0.37779427 1.1632562 7.320353
0.37779427 1.1632562 7.5203528
0.37779427 1.1632562 7.7203531
0.37779427 1.1632562 7.9203529
0.37779427 1.1632562 8.1203527
0.37779427 1.1632562 8.3203526
0.37779427 1.1632562 8.5203533
0.37779427 1.1632562 8.7203531
-0.4858872 0.061414845 -0.079647213
-0.36250412 0.21882075 -0.079647213
-0.23912106 0.37622666 -0.079647213
-0.11573799 0.53363258 -0.079647213
0.0076450715 0.69103849 -0.079647213
0.13102813 0.84844434 -0.079647213
0.25441122 1.0058503 -0.079647213
0.37779427 1.1632562 -0.079647213
0.50117737 1.3206621 -0.079647213
0.62456036 1.478068 -0.079647213
0.74794346 1.6354738 -0.079647213
0.87132657 1.7928798 -0.079647213
0.99470967 1.9502858 -0.079647213
1.1180927 2.1076915 -0.079647213
1.2414757 2.2650974 -0.079647213
0.50117737 1.3206621 -0.079647213
0.34377146 1.4440452 -0.079647213
0.18636554 1.5674282 -0.079647213
0.028959621 1.6908113 -0.079647213
-0.12844627 1.8141943 -0.079647213
-0.28585216 1.9375775 -0.079647213
-0.44325811 2.0609605 -0.079647213
-0.60066396 2.1843436 -0.079647213
-0.75806987 2.3077266 -0.079647213
-0.91547573 2.4311097 -0.079647213
-1.0728817 2.5544927 -0.079647213
-1.2302877 2.6778758 -0.079647213
-1.3876935 2.801259 -0.079647213
-1.5450994 2.9246418 -0.079647213
-1.7025052 3.0480251 -0.079647213
-1.8599112 3.1714082 -0.079647213
-2.0173171 3.2947912 -0.079647213
-2.1747231 3.4181743 -0.079647213
-2.3321288 3.5415573 -0.079647213
-2.4895349 3.6649404 -0.079647213
-2.6469407 3.7883234 -0.079647213
-2.8043466 3.9117064 -0.079647213
-2.9617527 4.0350895 -0.079647213
-3.1191583 4.1584725 -0.079647213
-3.2765646 4.2818561 -0.079647213
-3.4339702 4.4052386 -0.079647213
-3.5913761 4.5286217 -0.079647213
-3.7487822 4.6520052 -0.079647213
-3.9061878 4.7753878 -0.079647213
-4.0635939 4.8987713 -0.079647213
0.50117737 1.3206621 -0.079647213
0.50117737 1.3206621 0.12035279
0.50117737 1.3206621 0.32035279
0.50117737 1.3206621 0.52035284
0.50117737 1.3206621 0.72035283
0.50117737 1.3206621 0.92035282
0.50117737 1.3206621 1.1203529
0.50117737 1.3206621 1.3203528
0.50117737 1.3206621 1.5203528
0.50117737 1.3206621 1.7203528
0.50117737 1.3206621 1.9203528
0.50117737 1.3206621 2.1203527
0.50117737 1.3206621 2.3203528
0.50117737 1.3206621 2.5203526
0.50117737 1.3206621 2.7203526
0.50117737 1.3206621 2.9203527
0.50117737 1.3206621 3.1203527
0.50117737 1.3206621 3.3203528
0.50117737 1.3206621 3.5203526
0.50117737 1.3206621 3.7203526
0.50117737 1.3206621 3.9203527
0.50117737 1.3206621 4.1203527
0.50117737 1.3206621 4.320353
0.50117737 1.3206621 4.5203528
0.50117737 1.3206621 4.7203531
0.50117737 1.3206621 4.9203529
0.50117737 1.3206621 5.1203527
0.50117737 1.3206621 5.320353
0.50117737 1.3206621 5.5203528
0.50117737 1.3206621 5.7203531
0.50117737 1.3206621 5.9203529
0.50117737 1.3206621 6.1203527
0.50117737 1.3206621 6.320353
0.50117737 1.3206621 6.5203528
0.50117737 1.3206621 6.7203531
0.50117737 1.3206621 6.9203529
0.50117737 1.3206621 7.1203527
0.50117737 1.3206621 7.320353
0.50117737 1.3206621 7.5203528
0.50117737 1.3206621 7.7203531
0.50117737 1.3206621 7.9203529
0.50117737 1.3206621 8.1203527
0.50117737 1.3206621 8.3203526
0.50117737 1.3206621 8.5203533
0.50117737 1.3206621 8.7203531
-0.4858872 0.061414845 -0.079647213
-0.36250412 0.21882075 -0.079647213
-0.23912106 0.37622666 -0.079647213
-0.11573799 0.53363258 -0.079647213
0.0076450715 0.69103849 -0.079647213
0.13102813 0.84844434 -0.079647213
0.25441122 1.0058503 -0.079647213
0.37779427 1.1632562 -0.079647213
0.50117737 1.3206621 -0.079647213
0.62456036 1.478068 -0.079647213
0.74794346 1.6354738 -0.079647213
0.87132657 1.7928798 -0.079647213
0.99470967 1.9502858 -0.079647213
1.1180927 2.1076915 -0.079647213
1.2414757 2.2650974 -0.079647213
0.62456036 1.478068 -0.079647213
0.46715447 1.601451 -0.079647213
0.30974856 1.7248341 -0.079647213
0.15234265 1.8482171 -0.079647213
-0.0050632493 1.9716002 -0.079647213
-0.16246915 2.0949833 -0.079647213
-0.31987509 2.2183664 -0.079647213
-0.47728094 2.3417494 -0.079647213
-0.63468689 2.4651325 -0.079647213
-0.79209274 2.5885155 -0.079647213
-0.94949865 2.7118986 -0.079647213
-1.1069046 2.8352816 -0.079647213
-1.2643106 2.9586649 -0.079647213
-1.4217163 3.0820477 -0.079647213
-1.5791222 3.2054307 -0.079647213
-1.7365282 3.328814 -0.079647213
-1.8939341 3.4521971 -0.079647213
-2.0513401 3.5755801 -0.079647213
-2.2087457 3.6989632 -0.079647213
-2.3661518 3.8223462 -0.079647213
-2.5235577 3.9457293 -0.079647213
-2.6809635 4.0691123 -0.079647213
-2.8383696 4.1924953 -0.079647213
-2.9957752 4.3158784 -0.079647213
-3.1531816 4.4392619 -0.079647213
-3.3105872 4.5626445 -0.079647213
-3.467993 4.6860275 -0.079647213
-3.6253991 4.809411 -0.079647213
-3.782805 4.9327936 -0.079647213
-3.9402111 5.0561771 -0.079647213
0.62456036 1.478068 -0.079647213
0.62456036 1.478068 0.12035279
0.62456036 1.478068 0.32035279
0.62456036 1.478068 0.52035284
0.62456036 1.478068 0.72035283
0.62456036 1.478068 0.92035282
0.62456036 1.478068 1.1203529
0.62456036 1.478068 1.3203528
0.62456036 1.478068 1.5203528
0.62456036 1.478068 1.7203528
0.62456036 1.478068 1.9203528
0.62456036 1.478068 2.1203527
0.62456036 1.478068 2.3203528
0.62456036 1.478068 2.5203526
0.62456036 1.478068 2.7203526
0.62456036 1.478068 2.9203527
0.62456036 1.478068 3.1203527
0.62456036 1.478068 3.3203528
0.62456036 1.478068 3.5203526
0.62456036 1.478068 3.7203526
0.62456036 1.478068 3.9203527
0.62456036 1.478068 4.1203527
0.62456036 1.478068 4.320353
0.62456036 1.478068 4.5203528
0.62456036 1.478068 4.7203531
0.62456036 1.478068 4.9203529
0.62456036 1.478068 5.1203527
0.62456036 1.478068 5.320353
0.62456036 1.478068 5.5203528
0.62456036 1.478068 5.7203531
0.62456036 1.478068 5.9203529
0.62456036 1.478068 6.1203527
0.62456036 1.478068 6.320353
0.62456036 1.478068 6.5203528
0.62456036 1.478068 6.7203531
0.62456036 1.478068 6.9203529
0.62456036 1.478068 7.1203527
0.62456036 1.478068 7.320353
0.62456036 1.478068 7.5203528
0.62456036 1.478068 7.7203531
0.62456036 1.478068 7.9203529
0.62456036 1.478068 8.1203527
0.62456036 1.478068 8.3203526
0.62456036 1.478068 8.5203533
0.62456036 1.478068 8.7203531
-0.4858872 0.061414845 -0.079647213
-0.36250412 0.21882075 -0.079647213
-0.23912106 0.37622666 -0.079647213
-0.11573799 0.53363258 -0.079647213
0.0076450715 0.69103849 -0.079647213
0.13102813 0.84844434 -0.079647213
0.25441122 1.0058503 -0.079647213
0.37779427 1.1632562 -0.079647213
0.50117737 1.3206621 -0.079647213
0.62456036 1.478068 -0.079647213
0.74794346 1.6354738 -0.079647213
0.87132657 1.7928798 -0.079647213
0.99470967 1.9502858 -0.079647213
1.1180927 2.1076915 -0.079647213
1.2414757 2.2650974 -0.079647213
0.74794346 1.6354738 -0.079647213
0.59053755 1.758857 -0.079647213
0.43313166 1.8822401 -0.079647213
0.27572575 2.0056231 -0.079647213
0.11831985 2.1290061 -0.079647213
-0.039086048 2.2523892 -0.079647213
-0.19649199 2.3757722 -0.079647213
-0.35389784 2.4991553 -0.079647213
-0.51130378 2.6225383 -0.079647213
-0.66870964 2.7459214 -0.079647213
-0.82611555 2.8693047 -0.079647213
-0.98352152 2.9926877 -0.079647213
-1.1409274 3.1160707 -0.079647213
-1.2983332 3.2394538 -0.079647213
-1.4557391 3.3628368 -0.079647213
-1.6131451 3.4862199 -0.079647213
-1.770551 3.6096029 -0.079647213
-1.9279569 3.7329862 -0.079647213
-2.0853627 3.856369 -0.079647213
-2.2427688 3.9797521 -0.079647213
-2.4001746 4.1031351 -0.079647213
-2.5575805 4.2265182 -0.079647213
-2.7149866 4.3499017 -0.079647213
-2.8723922 4.4732842 -0.079647213
-3.0297983 4.5966678 -0.079647213
-3.1872041 4.7200508 -0.079647213
-3.34461 4.8434334 -0.079647213
-3.5020161 4.9668169 -0.079647213
-3.6594217 5.0901999 -0.079647213
-3.8168278 5.213583 -0.079647213
0.74794346 1.6354738 -0.079647213
0.74794346 1.6354738 0.12035279
0.74794346 1.6354738 0.32035279
0.74794346 1.6354738 0.52035284
0.74794346 1.6354738 0.72035283
0.74794346 1.6354738 0.92035282
0.74794346 1.6354738 1.1203529
0.74794346 1.6354738 1.3203528
0.74794346 1.6354738 1.5203528
0.74794346 1.6354738 1.7203528
0.74794346 1.6354738 1.9203528
0.74794346 1.6354738 2.1203527
0.74794346 1.6354738 2.3203528
0.74794346 1.6354738 2.5203526
0.74794346 1.6354738 2.7203526
0.74794346 1.6354738 2.9203527
0.74794346 1.6354738 3.1203527
0.74794346 1.6354738 3.3203528
0.74794346 1.6354738 3.5203526
0.74794346 1.6354738 3.7203526
0.74794346 1.6354738 3.9203527
0.74794346 1.6354738 4.1203527
0.74794346 1.6354738 4.320353
0.74794346 1.6354738 4.5203528
0.74794346 1.6354738 4.7203531
0.74794346 1.6354738 4.9203529
0.74794346 1.6354738 5.1203527
0.74794346 1.6354738 5.320353
0.74794346 1.6354738 5.5203528
0.74794346 1.6354738 5.7203531
0.74794346 1.6354738 5.9203529
0.74794346 1.6354738 6.1203527
0.74794346 1.6354738 6.320353
0.74794346 1.6354738 6.5203528
0.74794346 1.6354738 6.7203531
0.74794346 1.6354738 6.9203529
0.74794346 1.6354738 7.1203527
0.74794346 1.6354738 7.320353
0.74794346 1.6354738 7.5203528
0.74794346 1.6354738 7.7203531
0.74794346 1.6354738 7.9203529
0.74794346 1.6354738 8.1203527
0.74794346 1.6354738 8.3203526
0.74794346 1.6354738 8.5203533
0.74794346 1.6354738 8.7203531
-0.4858872 0.061414845 -0.079647213
-0.36250412 0.21882075 -0.079647213
-0.23912106 0.37622666 -0.079647213
-0.11573799 0.53363258 -0.079647213
0.0076450715 0.69103849 -0.079647213
0.13102813 0.84844434 -0.079647213
0.25441122 1.0058503 -0.079647213
0.37779427 1.1632562 -0.079647213
0.50117737 1.3206621 -0.079647213
0.62456036 1.478068 -0.079647213
0.74794346 1.6354738 -0.079647213
0.87132657 1.7928798 -0.079647213
0.99470967 1.9502858 -0.079647213
1.1180927 2.1076915 -0.079647213
1.2414757 2.2650974 -0.079647213
0.87132657 1.7928798 -0.079647213
0.71392065 1.9162629 -0.079647213
0.55651474 2.0396459 -0.079647213
0.39910883 2.163029 -0.079647213
0.24170294 2.286412 -0.079647213
0.084297054 2.409795 -0.079647213
-0.073108889 2.5331783 -0.079647213
-0.23051473 2.6565614 -0.079647213
-0.38792068 2.7799444 -0.079647213
-0.54532653 2.9033275 -0.079647213
-0.70273244 3.0267105 -0.079647213
-0.86013842 3.1500936 -0.079647213
-1.0175444 3.2734766 -0.079647213
-1.1749501 3.3968596 -0.079647213
-1.3323561 3.5202427 -0.079647213
-1.4897619 3.6436257 -0.079647213
-1.6471679 3.767009 -0.079647213
-1.8045739 3.8903921 -0.079647213
-1.9619796 4.0137749 -0.079647213
-2.1193855 4.1371579 -0.079647213
-2.2767916 4.260541 -0.079647213
-2.4341972 4.383924 -0.079647213
-2.5916033 4.5073075 -0.079647213
-2.7490091 4.6306901 -0.079647213
-2.9064152 4.7540736 -0.079647213
-3.0638211 4.8774567 -0.079647213
-3.2212267 5.0008397 -0.079647213
-3.378633 5.1242228 -0.079647213
-3.5360386 5.2476058 -0.079647213
-3.6934447 5.3709888 -0.079647213
0.87132657 1.7928798 -0.079647213
0.87132657 1.7928798 0.12035279
0.87132657 1.7928798 0.32035279
0.87132657 1.7928798 0.52035284
0.87132657 1.7928798 0.72035283
0.87132657 1.7928798 0.92035282
0.87132657 1.7928798 1.1203529
0.87132657 1.7928798 1.3203528
0.87132657 1.7928798 1.5203528
0.87132657 1.7928798 1.7203528
0.87132657 1.7928798 1.9203528
0.87132657 1.7928798 2.1203527
0.87132657 1.7928798 2.3203528
0.87132657 1.7928798 2.5203526
0.87132657 1.7928798 2.7203526
0.87132657 1.7928798 2.9203527
0.87132657 1.7928798 3.1203527
0.87132657 1.7928798 3.3203528
0.87132657 1.7928798 3.5203526
0.87132657 1.7928798 3.7203526
0.87132657 1.7928798 3.9203527
0.87132657 1.7928798 4.1203527
0.87132657 1.7928798 4.320353
0.87132657 1.7928798 4.5203528
0.87132657 1.7928798 4.7203531
0.87132657 1.7928798 4.9203529
0.87132657 1.7928798 5.1203527
0.87132657 1.7928798 5.320353
0.87132657 1.7928798 5.5203528
0.87132657 1.7928798 5.7203531
0.87132657 1.7928798 5.9203529
0.87132657 1.7928798 6.1203527
0.87132657 1.7928798 6.320353
0.87132657 1.7928798 6.5203528
0.87132657 1.7928798 6.7203531
0.87132657 1.7928798 6.9203529
0.87132657 1.7928798 7.1203527
0.87132657 1.7928798 7.320353
0.87132657 1.7928798 7.5203528
0.87132657 1.7928798 7.7203531
0.87132657 1.7928798 7.9203529
0.87132657 1.7928798 8.1203527
0.87132657 1.7928798 8.3203526
0.87132657 1.7928798 8.5203533
0.87132657 1.7928798 8.7203531
-0.4858872 0.061414845 -0.079647213
-0.36250412 0.21882075 -0.079647213
-0.23912106 0.37622666 -0.079647213
-0.11573799 0.53363258 -0.079647213
0.0076450715 0.69103849 -0.079647213
0.13102813 0.84844434 -0.079647213
0.25441122 1.0058503 -0.079647213
0.37779427 1.1632562 -0.079647213
0.50117737 1.3206621 -0.079647213
0.62456036 1.478068 -0.079647213
0.74794346 1.6354738 -0.079647213
0.87132657 1.7928798 -0.079647213
0.99470967 1.9502858 -0.079647213
1.1180927 2.1076915 -0.079647213
1.2414757 2.2650974 -0.079647213
0.99470967 1.9502858 -0.079647213
0.83730376 2.0736687 -0.079647213
0.67989784 2.197052 -0.079647213
0.52249193 2.320435 -0.079647213
0.36508605 2.4438181 -0.079647213
0.20768015 2.5672011 -0.079647213
0.050274208 2.6905842 -0.079647213
-0.10713164 2.8139672 -0.079647213
-0.26453757 2.9373503 -0.079647213
-0.42194343 3.0607333 -0.079647213
-0.5793494 3.1841164 -0.079647213
-0.73675531 3.3074996 -0.079647213
-0.89416122 3.4308827 -0.079647213
-1.051567 3.5542655 -0.079647213
-1.2089729 3.6776488 -0.079647213
-1.3663789 3.8010318 -0.079647213
-1.5237849 3.9244149 -0.079647213
-1.6811907 4.0477982 -0.079647213
-1.8385966 4.1711807 -0.079647213
-1.9960024 4.2945642 -0.079647213
-2.1534083 4.4179473 -0.079647213
-2.3108141 4.5413299 -0.079647213
-2.4682202 4.6647134 -0.079647213
-2.6256261 4.7880964 -0.079647213
-2.7830322 4.9114795 -0.079647213
-2.940438 5.0348625 -0.079647213
-3.0978436 5.1582456 -0.079647213
-3.2552497 5.2816286 -0.079647213
-3.4126556 5.4050117 -0.079647213
-3.5700617 5.5283947 -0.079647213
0.99470967 1.9502858 -0.079647213
0.99470967 1.9502858 0.12035279
0.99470967 1.9502858 0.32035279
0.99470967 1.9502858 0.52035284
0.99470967 1.9502858 0.72035283
0.99470967 1.9502858 0.92035282
0.99470967 1.9502858 1.1203529
0.99470967 1.9502858 1.3203528
0.99470967 1.9502858 1.5203528
0.99470967 1.9502858 1.7203528
0.99470967 1.9502858 1.9203528
0.99470967 1.9502858 2.1203527
0.99470967 1.9502858 2.3203528
0.99470967 1.9502858 2.5203526
0.99470967 1.9502858 2.7203526
0.99470967 1.9502858 2.9203527
0.99470967 1.9502858 3.1203527
0.99470967 1.9502858 3.3203528
0.99470967 1.9502858 3.5203526
0.99470967 1.9502858 3.7203526
0.99470967 1.9502858 3.9203527
0.99470967 1.9502858 4.1203527
0.99470967 1.9502858 4.320353
0.99470967 1.9502858 4.5203528
0.99470967 1.9502858 4.7203531
0.99470967 1.9502858 4.9203529
0.99470967 1.9502858 5.1203527
0.99470967 1.9502858 5.320353
0.99470967 1.9502858 5.5203528
0.99470967 1.9502858 5.7203531
0.99470967 1.9502858 5.9203529
0.99470967 1.9502858 6.1203527
0.99470967 1.9502858 6.320353
0.99470967 1.9502858 6.5203528
0.99470967 1.9502858 6.7203531
0.99470967 1.9502858 6.9203529
0.99470967 1.9502858 7.1203527
0.99470967 1.9502858 7.320353
0.99470967 1.9502858 7.5203528
0.99470967 1.9502858 7.7203531
0.99470967 1.9502858 7.9203529
0.99470967 1.9502858 8.1203527
0.99470967 1.9502858 8.3203526
0.99470967 1.9502858 8.5203533
0.99470967 1.9502858 8.7203531
-0.4858872 0.061414845 -0.079647213
-0.36250412 0.21882075 -0.079647213
-0.23912106 0.37622666 -0.079647213
-0.11573799 0.53363258 -0.079647213
0.0076450715 0.69103849 -0.079647213
0.13102813 0.84844434 -0.079647213
0.25441122 1.0058503 -0.079647213
0.37779427 1.1632562 -0.079647213
0.50117737 1.3206621 -0.079647213
0.62456036 1.478068 -0.079647213
0.74794346 1.6354738 -0.079647213
0.87132657 1.7928798 -0.079647213
0.99470967 1.9502858 -0.079647213
1.1180927 2.1076915 -0.079647213
1.2414757 2.2650974 -0.079647213
1.1180927 2.1076915 -0.079647213
0.96068668 2.2310746 -0.079647213
0.80328083 2.3544576 -0.079647213
0.64587492 2.4778407 -0.079647213
0.488469 2.6012237 -0.079647213
0.33106309 2.7246068 -0.079647213
0.17365716 2.84799 -0.079647213
0.016251311 2.9713731 -0.079647213
-0.14115463 3.0947561 -0.079647213
-0.29856047 3.2181392 -0.079647213
-0.45596641 3.3415222 -0.079647213
-0.61337239 3.4649053 -0.079647213
-0.7707783 3.5882883 -0.079647213
-0.92818403 3.7116714 -0.079647213
-1.08559 3.8350544 -0.079647213
-1.242996 3.9584374 -0.079647213
-1.4004018 4.0818205 -0.079647213
-1.5578078 4.2052035 -0.079647213
-1.7152135 4.3285866 -0.079647213
-1.8726195 4.4519696 -0.079647213
-2.0300255 4.5753527 -0.079647213
-2.1874311 4.6987357 -0.079647213
-2.3448374 4.8221192 -0.079647213
-2.502243 4.9455018 -0.079647213
-2.6596491 5.0688853 -0.079647213
-2.817055 5.1922684 -0.079647213
-2.9744608 5.3156509 -0.079647213
-3.1318669 5.4390345 -0.079647213
-3.2892725 5.5624175 -0.079647213
-3.4466786 5.6858006 -0.079647213
1.1180927 2.1076915 -0.079647213
1.1180927 2.1076915 0.12035279
1.1180927 2.1076915 0.32035279
1.1180927 2.1076915 0.52035284
1.1180927 2.1076915 0.72035283
1.1180927 2.1076915 0.92035282
1.1180927 2.1076915 1.1203529
1.1180927 2.1076915 1.3203528
1.1180927 2.1076915 1.5203528
1.1180927 2.1076915 1.7203528
1.1180927 2.1076915 1.9203528
1.1180927 2.1076915 2.1203527
1.1180927 2.1076915 2.3203528
1.1180927 2.1076915 2.5203526
1.1180927 2.1076915 2.7203526
1.1180927 2.1076915 2.9203527
1.1180927 2.1076915 3.1203527
1.1180927 2.1076915 3.3203528
1.1180927 2.1076915 3.5203526
1.1180927 2.1076915 3.7203526
1.1180927 2.1076915 3.9203527
1.1180927 2.1076915 4.1203527
1.1180927 2.1076915 4.320353
1.1180927 2.1076915 4.5203528
1.1180927 2.1076915 4.7203531
1.1180927 2.1076915 4.9203529
1.1180927 2.1076915 5.1203527
1.1180927 2.1076915 5.320353
1.1180927 2.1076915 5.5203528
1.1180927 2.1076915 5.7203531
1.1180927 2.1076915 5.9203529
1.1180927 2.1076915 6.1203527
1.1180927 2.1076915 6.320353
1.1180927 2.1076915 6.5203528
1.1180927 2.1076915 6.7203531
1.1180927 2.1076915 6.9203529
1.1180927 2.1076915 7.1203527
1.1180927 2.1076915 7.320353
1.1180927 2.1076915 7.5203528
1.1180927 2.1076915 7.7203531
1.1180927 2.1076915 7.9203529
1.1180927 2.1076915 8.1203527
1.1180927 2.1076915 8.3203526
1.1180927 2.1076915 8.5203533
1.1180927 2.1076915 8.7203531
-0.4858872 0.061414845 -0.079647213
-0.36250412 0.21882075 -0.079647213
-0.23912106 0.37622666 -0.079647213
-0.11573799 0.53363258 -0.079647213
0.0076450715 0.69103849 -0.079647213
0.13102813 0.84844434 -0.079647213
0.25441122 1.0058503 -0.079647213
0.37779427 1.1632562 -0.079647213
0.50117737 1.3206621 -0.079647213
0.62456036 1.478068 -0.079647213
0.74794346 1.6354738 -0.079647213
0.87132657 1.7928798 -0.079647213
0.99470967 1.9502858 -0.079647213
1.1180927 2.1076915 -0.079647213
1.2414757 2.2650974 -0.079647213
1.2414757 2.2650974 -0.079647213
1.0840698 2.3884804 -0.079647213
0.92666388 2.5118637 -0.079647213
0.76925796 2.6352468 -0.079647213
0.61185211 2.7586298 -0.079647213
0.4544462 2.8820128 -0.079647213
0.29704025 3.0053959 -0.079647213
0.1396344 3.1287789 -0.079647213
-0.017771533 3.252162 -0.079647213
-0.17517738 3.375545 -0.079647213
-0.33258331 3.4989281 -0.079647213
-0.48998925 3.6223114 -0.079647213
-0.64739519 3.7456944 -0.079647213
-0.80480099 3.8690772 -0.079647213
-0.9622069 3.9924605 -0.079647213
-1.1196128 4.1158433 -0.079647213
-1.2770188 4.2392263 -0.079647213
-1.4344248 4.3626099 -0.079647213
-1.5918305 4.4859924 -0.079647213
-1.7492365 4.609376 -0.079647213
-1.9066423 4.732759 -0.079647213
-2.0640481 4.8561416 -0.079647213
-2.2214541 4.9795251 -0.079647213
-2.37886 5.1029081 -0.079647213
-2.5362661 5.2262912 -0.079647213
-2.6936719 5.3496742 -0.079647213
-2.8510776 5.4730573 -0.079647213
-3.0084836 5.5964403 -0.079647213
-3.1658895 5.7198234 -0.079647213
-3.3232956 5.8432064 -0.079647213
1.2414757 2.2650974 -0.079647213
1.2414757 2.2650974 0.12035279
1.2414757 2.2650974 0.32035279
1.2414757 2.2650974 0.52035284
1.2414757 2.2650974 0.72035283
1.2414757 2.2650974 0.92035282
1.2414757 2.2650974 1.1203529
1.2414757 2.2650974 1.3203528
1.2414757 2.2650974 1.5203528
1.2414757 2.2650974 1.7203528
1.2414757 2.2650974 1.9203528
1.2414757 2.2650974 2.1203527
1.2414757 2.2650974 2.3203528
1.2414757 2.2650974 2.5203526
1.2414757 2.2650974 2.7203526
1.2414757 2.2650974 2.9203527
1.2414757 2.2650974 3.1203527
1.2414757 2.2650974 3.3203528
1.2414757 2.2650974 3.5203526
1.2414757 2.2650974 3.7203526
1.2414757 2.2650974 3.9203527
1.2414757 2.2650974 4.1203527
1.2414757 2.2650974 4.320353
1.2414757 2.2650974 4.5203528
1.2414757 2.2650974 4.7203531
1.2414757 2.2650974 4.9203529
1.2414757 2.2650974 5.1203527
1.2414757 2.2650974 5.320353
1.2414757 2.2650974 5.5203528
1.2414757 2.2650974 5.7203531
1.2414757 2.2650974 5.9203529
1.2414757 2.2650974 6.1203527
1.2414757 2.2650974 6.320353
1.2414757 2.2650974 6.5203528
1.2414757 2.2650974 6.7203531
1.2414757 2.2650974 6.9203529
1.2414757 2.2650974 7.1203527
1.2414757 2.2650974 7.320353
1.2414757 2.2650974 7.5203528
1.2414757 2.2650974 7.7203531
1.2414757 2.2650974 7.9203529
1.2414757 2.2650974 8.1203527
1.2414757 2.2650974 8.3203526
1.2414757 2.2650974 8.5203533
1.2414757 2.2650974 8.7203531
-0.4858872 0.061414845 -0.079647213
-0.64329314 0.18479791 -0.079647213
-0.800699 0.30818099 -0.079647213
-0.95810491 0.43156406 -0.079647213
-1.1155108 0.55494714 -0.079647213
-1.2729167 0.67833018 -0.079647213
-1.4303226 0.80171329 -0.079647213
-1.5877285 0.92509633 -0.079647213
-1.7451345 1.0484794 -0.079647213
-1.9025403 1.1718625 -0.079647213
-2.0599463 1.2952455 -0.079647213
-2.2173522 1.4186286 -0.079647213
-2.3747582 1.5420117 -0.079647213
-2.5321639 1.6653947 -0.079647213
-2.6895697 1.7887778 -0.079647213
-2.8469758 1.9121609 -0.079647213
-3.0043817 2.0355439 -0.079647213
-3.1617877 2.158927 -0.079647213
-3.3191934 2.28231 -0.079647213
-3.4765995 2.4056931 -0.079647213
-3.6340053 2.5290761 -0.079647213
-3.7914109 2.6524591 -0.079647213
-3.9488173 2.7758424 -0.079647213
-4.1062231 2.8992252 -0.079647213
-4.263629 3.0226085 -0.079647213
-4.4210348 3.1459916 -0.079647213
-4.5784407 3.2693746 -0.079647213
-4.7358465 3.3927577 -0.079647213
-4.8932524 3.5161407 -0.079647213
-5.0506587 3.639524 -0.079647213
-0.4858872 0.061414845 -0.079647213
-0.4858872 0.061414845 0.12035279
-0.4858872 0.061414845 0.32035279
-0.4858872 0.061414845 0.52035284
-0.4858872 0.061414845 0.72035283
-0.4858872 0.061414845 0.92035282
-0.4858872 0.061414845 1.1203529
-0.4858872 0.061414845 1.3203528
-0.4858872 0.061414845 1.5203528
-0.4858872 0.061414845 1.7203528
-0.4858872 0.061414845 1.9203528
-0.4858872 0.061414845 2.1203527
-0.4858872 0.061414845 2.3203528
-0.4858872 0.061414845 2.5203526
-0.4858872 0.061414845 2.7203526
-0.4858872 0.061414845 2.9203527
-0.4858872 0.061414845 3.1203527
-0.4858872 0.061414845 3.3203528
-0.4858872 0.061414845 3.5203526
-0.4858872 0.061414845 3.7203526
-0.4858872 0.061414845 3.9203527
-0.4858872 0.061414845 4.1203527
-0.4858872 0.061414845 4.320353
-0.4858872 0.061414845 4.5203528
-0.4858872 0.061414845 4.7203531
-0.4858872 0.061414845 4.9203529
-0.4858872 0.061414845 5.1203527
-0.4858872 0.061414845 5.320353
-0.4858872 0.061414845 5.5203528
-0.4858872 0.061414845 5.7203531
-0.4858872 0.061414845 5.9203529
-0.4858872 0.061414845 6.1203527
-0.4858872 0.061414845 6.320353
-0.4858872 0.061414845 6.5203528
-0.4858872 0.061414845 6.7203531
-0.4858872 0.061414845 6.9203529
-0.4858872 0.061414845 7.1203527
-0.4858872 0.061414845 7.320353
-0.4858872 0.061414845 7.5203528
-0.4858872 0.061414845 7.7203531
-0.4858872 0.061414845 7.9203529
-0.4858872 0.061414845 8.1203527
-0.4858872 0.061414845 8.3203526
-0.4858872 0.061414845 8.5203533
-0.4858872 0.061414845 8.7203531
-0.4858872 0.061414845 -0.079647213
-0.64329314 0.18479791 -0.079647213
-0.800699 0.30818099 -0.079647213
-0.95810491 0.43156406 -0.079647213
-1.1155108 0.55494714 -0.079647213
-1.2729167 0.67833018 -0.079647213
-1.4303226 0.80171329 -0.079647213
-1.5877285 0.92509633 -0.079647213
-1.7451345 1.0484794 -0.079647213
-1.9025403 1.1718625 -0.079647213
-2.0599463 1.2952455 -0.079647213
-2.2173522 1.4186286 -0.079647213
-2.3747582 1.5420117 -0.079647213
-2.5321639 1.6653947 -0.079647213
-2.6895697 1.7887778 -0.079647213
-2.8469758 1.9121609 -0.079647213
-3.0043817 2.0355439 -0.079647213
-3.1617877 2.158927 -0.079647213
-3.3191934 2.28231 -0.079647213
-3.4765995 2.4056931 -0.079647213
-3.6340053 2.5290761 -0.079647213
-3.7914109 2.6524591 -0.079647213
-3.9488173 2.7758424 -0.079647213
-4.1062231 2.8992252 -0.079647213
-4.263629 3.0226085 -0.079647213
-4.4210348 3.1459916 -0.079647213
-4.5784407 3.2693746 -0.079647213
-4.7358465 3.3927577 -0.079647213
-4.8932524 3.5161407 -0.079647213
-5.0506587 3.639524 -0.079647213
-0.64329314 0.18479791 -0.079647213
-0.64329314 0.18479791 0.12035279
-0.64329314 0.18479791 0.32035279
-0.64329314 0.18479791 0.52035284
-0.64329314 0.18479791 0.72035283
-0.64329314 0.18479791 0.92035282
-0.64329314 0.18479791 1.1203529
-0.64329314 0.18479791 1.3203528
-0.64329314 0.18479791 1.5203528
-0.64329314 0.18479791 1.7203528
-0.64329314 0.18479791 1.9203528
-0.64329314 0.18479791 2.1203527
-0.64329314 0.18479791 2.3203528
-0.64329314 0.18479791 2.5203526
-0.64329314 0.18479791 2.7203526
-0.64329314 0.18479791 2.9203527
-0.64329314 0.18479791 3.1203527
-0.64329314 0.18479791 3.3203528
-0.64329314 0.18479791 3.5203526
-0.64329314 0.18479791 3.7203526
-0.64329314 0.18479791 3.9203527
-0.64329314 0.18479791 4.1203527
-0.64329314 0.18479791 4.320353
-0.64329314 0.18479791 4.5203528
-0.64329314 0.18479791 4.7203531
-0.64329314 0.18479791 4.9203529
-0.64329314 0.18479791 5.1203527
-0.64329314 0.18479791 5.320353
-0.64329314 0.18479791 5.5203528
-0.64329314 0.18479791 5.7203531
-0.64329314 0.18479791 5.9203529
-0.64329314 0.18479791 6.1203527
-0.64329314 0.18479791 6.320353
-0.64329314 0.18479791 6.5203528
-0.64329314 0.18479791 6.7203531
-0.64329314 0.18479791 6.9203529
-0.64329314 0.18479791 7.1203527
-0.64329314 0.18479791 7.320353
-0.64329314 0.18479791 7.5203528
-0.64329314 0.18479791 7.7203531
-0.64329314 0.18479791 7.9203529
-0.64329314 0.18479791 8.1203527
-0.64329314 0.18479791 8.3203526
-0.64329314 0.18479791 8.5203533
-0.64329314 0.18479791 8.7203531
-0.4858872 0.061414845 -0.079647213
-0.64329314 0.18479791 -0.079647213
-0.800699 0.30818099 -0.079647213
-0.95810491 0.43156406 -0.079647213
-1.1155108 0.55494714 -0.079647213
-1.2729167 0.67833018 -0.079647213
-1.4303226 0.80171329 -0.079647213
-1.5877285 0.92509633 -0.079647213
-1.7451345 1.0484794 -0.079647213
-1.9025403 1.1718625 -0.079647213
-2.0599463 1.2952455 -0.079647213
-2.2173522 1.4186286 -0.079647213
-2.3747582 1.5420117 -0.079647213
-2.5321639 1.6653947 -0.079647213
-2.6895697 1.7887778 -0.079647213
-2.8469758 1.9121609 -0.079647213
-3.0043817 2.0355439 -0.079647213
-3.1617877 2.158927 -0.079647213
-3.3191934 2.28231 -0.079647213
-3.4765995 2.4056931 -0.079647213
-3.6340053 2.5290761 -0.079647213
-3.7914109 2.6524591 -0.079647213
-3.9488173 2.7758424 -0.079647213
-4.1062231 2.8992252 -0.079647213
-4.263629 3.0226085 -0.079647213
-4.4210348 3.1459916 -0.079647213
-4.5784407 3.2693746 -0.079647213
-4.7358465 3.3927577 -0.079647213
-4.8932524 3.5161407 -0.079647213
-5.0506587 3.639524 -0.079647213
-0.800699 0.30818099 -0.079647213
-0.800699 0.30818099 0.12035279
-0.800699 0.30818099 0.32035279
-0.800699 0.30818099 0.52035284
-0.800699 0.30818099 0.72035283
-0.800699 0.30818099 0.92035282
-0.800699 0.30818099 1.1203529
-0.800699 0.30818099 1.3203528
-0.800699 0.30818099 1.5203528
-0.800699 0.30818099 1.7203528
-0.800699 0.30818099 1.9203528
-0.800699 0.30818099 2.1203527
-0.800699 0.30818099 2.3203528
-0.800699 0.30818099 2.5203526
-0.800699 0.30818099 2.7203526
-0.800699 0.30818099 2.9203527
-0.800699 0.30818099 3.1203527
-0.800699 0.30818099 3.3203528
-0.800699 0.30818099 3.5203526
-0.800699 0.30818099 3.7203526
-0.800699 0.30818099 3.9203527
-0.800699 0.30818099 4.1203527
-0.800699 0.30818099 4.320353
-0.800699 0.30818099 4.5203528
-0.800699 0.30818099 4.7203531
-0.800699 0.30818099 4.9203529
-0.800699 0.30818099 5.1203527
-0.800699 0.30818099 5.320353
-0.800699 0.30818099 5.5203528
-0.800699 0.30818099 5.7203531
-0.800699 0.30818099 5.9203529
-0.800699 0.30818099 6.1203527
-0.800699 0.30818099 6.320353
-0.800699 0.30818099 6.5203528
-0.800699 0.30818099 6.7203531
-0.800699 0.30818099 6.9203529
-0.800699 0.30818099 7.1203527
-0.800699 0.30818099 7.320353
-0.800699 0.30818099 7.5203528
-0.800699 0.30818099 7.7203531
-0.800699 0.30818099 7.9203529
-0.800699 0.30818099 8.1203527
-0.800699 0.30818099 8.3203526
-0.800699 0.30818099 8.5203533
-0.800699 0.30818099 8.7203531
-0.4858872 0.061414845 -0.079647213
-0.64329314 0.18479791 -0.079647213
-0.800699 0.30818099 -0.079647213
-0.95810491 0.43156406 -0.079647213
-1.1155108 0.55494714 -0.079647213
-1.2729167 0.67833018 -0.079647213
-1.4303226 0.80171329 -0.079647213
-1.5877285 0.92509633 -0.079647213
-1.7451345 1.0484794 -0.079647213
-1.9025403 1.1718625 -0.079647213
-2.0599463 1.2952455 -0.079647213
-2.2173522 1.4186286 -0.079647213
-2.3747582 1.5420117 -0.079647213
-2.5321639 1.6653947 -0.079647213
-2.6895697 1.7887778 -0.079647213
-2.8469758 1.9121609 -0.079647213
-3.0043817 2.0355439 -0.079647213
-3.1617877 2.158927 -0.079647213
-3.3191934 2.28231 -0.079647213
-3.4765995 2.4056931 -0.079647213
-3.6340053 2.5290761 -0.079647213
-3.7914109 2.6524591 -0.079647213
-3.9488173 2.7758424 -0.079647213
-4.1062231 2.8992252 -0.079647213
-4.263629 3.0226085 -0.079647213
-4.4210348 3.1459916 -0.079647213
-4.5784407 3.2693746 -0.079647213
-4.7358465 3.3927577 -0.079647213
-4.8932524 3.5161407 -0.079647213
-5.0506587 3.639524 -0.079647213
-0.95810491 0.43156406 -0.079647213
-0.95810491 0.43156406 0.12035279
-0.95810491 0.43156406 0.32035279
-0.95810491 0.43156406 0.52035284
-0.95810491 0.43156406 0.72035283
-0.95810491 0.43156406 0.92035282
-0.95810491 0.43156406 1.1203529
-0.95810491 0.43156406 1.3203528
-0.95810491 0.43156406 1.5203528
-0.95810491 0.43156406 1.7203528
-0.95810491 0.43156406 1.9203528
-0.95810491 0.43156406 2.1203527
-0.95810491 0.43156406 2.3203528
-0.95810491 0.43156406 2.5203526
-0.95810491 0.43156406 2.7203526
-0.95810491 0.43156406 2.9203527
-0.95810491 0.43156406 3.1203527
-0.95810491 0.43156406 3.3203528
-0.95810491 0.43156406 3.5203526
-0.95810491 0.43156406 3.7203526
-0.95810491 0.43156406 3.9203527
-0.95810491 0.43156406 4.1203527
-0.95810491 0.43156406 4.320353
-0.95810491 0.43156406 4.5203528
-0.95810491 0.43156406 4.7203531
-0.95810491 0.43156406 4.9203529
-0.95810491 0.43156406 5.1203527
-0.95810491 0.43156406 5.320353
-0.95810491 0.43156406 5.5203528
-0.95810491 0.43156406 5.7203531
-0.95810491 0.43156406 5.9203529
-0.95810491 0.43156406 6.1203527
-0.95810491 0.43156406 6.320353
-0.95810491 0.43156406 6.5203528
-0.95810491 0.43156406 6.7203531
-0.95810491 0.43156406 6.9203529
-0.95810491 0.43156406 7.1203527
-0.95810491 0.43156406 7.320353
-0.95810491 0.43156406 7.5203528
-0.95810491 0.43156406 7.7203531
-0.95810491 0.43156406 7.9203529
-0.95810491 0.43156406 8.1203527
-0.95810491 0.43156406 8.3203526
-0.95810491 0.43156406 8.5203533
-0.95810491 0.43156406 8.7203531
-0.4858872 0.061414845 -0.079647213
-0.64329314 0.18479791 -0.079647213
-0.800699 0.30818099 -0.079647213
-0.95810491 0.43156406 -0.079647213
-1.1155108 0.55494714 -0.079647213
-1.2729167 0.67833018 -0.079647213
-1.4303226 0.80171329 -0.079647213
-1.5877285 0.92509633 -0.079647213
-1.7451345 1.0484794 -0.079647213
-1.9025403 1.1718625 -0.079647213
-2.0599463 1.2952455 -0.079647213
-2.2173522 1.4186286 -0.079647213
-2.3747582 1.5420117 -0.079647213
-2.5321639 1.6653947 -0.079647213
-2.6895697 1.7887778 -0.079647213
-2.8469758 1.9121609 -0.079647213
-3.0043817 2.0355439 -0.079647213
-3.1617877 2.158927 -0.079647213
-3.3191934 2.28231 -0.079647213
-3.4765995 2.4056931 -0.079647213
-3.6340053 2.5290761 -0.079647213
-3.7914109 2.6524591 -0.079647213
-3.9488173 2.7758424 -0.079647213
-4.1062231 2.8992252 -0.079647213
-4.263629 3.0226085 -0.079647213
-4.4210348 3.1459916 -0.079647213
-4.5784407 3.2693746 -0.079647213
-4.7358465 3.3927577 -0.079647213
-4.8932524 3.5161407 -0.079647213
-5.0506587 3.639524 -0.079647213
-1.1155108 0.55494714 -0.079647213
-1.1155108 0.55494714 0.12035279
-1.1155108 0.55494714 0.32035279
-1.1155108 0.55494714 0.52035284
-1.1155108 0.55494714 0.72035283
-1.1155108 0.55494714 0.92035282
-1.1155108 0.55494714 1.1203529
-1.1155108 0.55494714 1.3203528
-1.1155108 0.55494714 1.5203528
-1.1155108 0.55494714 1.7203528
-1.1155108 0.55494714 1.9203528
-1.1155108 0.55494714 2.1203527
-1.1155108 0.55494714 2.3203528
-1.1155108 0.55494714 2.5203526
-1.1155108 0.55494714 2.7203526
-1.1155108 0.55494714 2.9203527
-1.1155108 0.55494714 3.1203527
-1.1155108 0.55494714 3.3203528
-1.1155108 0.55494714 3.5203526
-1.1155108 0.55494714 3.7203526
-1.1155108 0.55494714 3.9203527
-1.1155108 0.55494714 4.1203527
-1.1155108 0.55494714 4.320353
-1.1155108 0.55494714 4.5203528
-1.1155108 0.55494714 4.7203531
-1.1155108 0.55494714 4.9203529
-1.1155108 0.55494714 5.1203527
-1.1155108 0.55494714 5.320353
-1.1155108 0.55494714 5.5203528
-1.1155108 0.55494714 5.7203531
-1.1155108 0.55494714 5.9203529
-1.1155108 0.55494714 6.1203527
-1.1155108 0.55494714 6.320353
-1.1155108 0.55494714 6.5203528
-1.1155108 0.55494714 6.7203531
-1.1155108 0.55494714 6.9203529
-1.1155108 0.55494714 7.1203527
-1.1155108 0.55494714 7.320353
-1.1155108 0.55494714 7.5203528
-1.1155108 0.55494714 7.7203531
-1.1155108 0.55494714 7.9203529
-1.1155108 0.55494714 8.1203527
-1.1155108 0.55494714 8.3203526
-1.1155108 0.55494714 8.5203533
-1.1155108 0.55494714 8.7203531
-0.4858872 0.061414845 -0.079647213
-0.64329314 0.18479791 -0.079647213
-0.800699 0.30818099 -0.079647213
-0.95810491 0.43156406 -0.079647213
-1.1155108 0.55494714 -0.079647213
-1.2729167 0.67833018 -0.079647213
-1.4303226 0.80171329 -0.079647213
-1.5877285 0.92509633 -0.079647213
-1.7451345 1.0484794 -0.079647213
-1.9025403 1.1718625 -0.079647213
-2.0599463 1.2952455 -0.079647213
-2.2173522 1.4186286 -0.079647213
-2.3747582 1.5420117 -0.079647213
-2.5321639 1.6653947 -0.079647213
-2.6895697 1.7887778 -0.079647213
-2.8469758 1.9121609 -0.079647213
-3.0043817 2.0355439 -0.079647213
-3.1617877 2.158927 -0.079647213
-3.3191934 2.28231 -0.079647213
-3.4765995 2.4056931 -0.079647213
-3.6340053 2.5290761 -0.079647213
-3.7914109 2.6524591 -0.079647213
-3.9488173 2.7758424 -0.079647213
-4.1062231 2.8992252 -0.079647213
-4.263629 3.0226085 -0.079647213
-4.4210348 3.1459916 -0.079647213
-4.5784407 3.2693746 -0.079647213
-4.7358465 3.3927577 -0.079647213
-4.8932524 3.5161407 -0.079647213
-5.0506587 3.639524 -0.079647213
-1.2729167 0.67833018 -0.079647213
-1.2729167 0.67833018 0.12035279
-1.2729167 0.67833018 0.32035279
-1.2729167 0.67833018 0.52035284
-1.2729167 0.67833018 0.72035283
-1.2729167 0.67833018 0.92035282
-1.2729167 0.67833018 1.1203529
-1.2729167 0.67833018 1.3203528
-1.2729167 0.67833018 1.5203528
-1.2729167 0.67833018 1.7203528
-1.2729167 0.67833018 1.9203528
-1.2729167 0.67833018 2.1203527
-1.2729167 0.67833018 2.3203528
-1.2729167 0.67833018 2.5203526
-1.2729167 0.67833018 2.7203526
-1.2729167 0.67833018 2.9203527
-1.2729167 0.67833018 3.1203527
-1.2729167 0.67833018 3.3203528
-1.2729167 0.67833018 3.5203526
-1.2729167 0.67833018 3.7203526
-1.2729167 0.67833018 3.9203527
-1.2729167 0.67833018 4.1203527
-1.2729167 0.67833018 4.320353
-1.2729167 0.67833018 4.5203528
-1.2729167 0.67833018 4.7203531
-1.2729167 0.67833018 4.9203529
-1.2729167 0.67833018 5.1203527
-1.2729167 0.67833018 5.320353
-1.2729167 0.67833018 5.5203528
-1.2729167 0.67833018 5.7203531
-1.2729167 0.67833018 5.9203529
-1.2729167 0.67833018 6.1203527
-1.2729167 0.67833018 6.320353
-1.2729167 0.67833018 6.5203528
-1.2729167 0.67833018 6.7203531
-1.2729167 0.67833018 6.9203529
-1.2729167 0.67833018 7.1203527
-1.2729167 0.67833018 7.320353
-1.2729167 0.67833018 7.5203528
-1.2729167 0.67833018 7.7203531
-1.2729167 0.67833018 7.9203529
-1.2729167 0.67833018 8.1203527
-1.2729167 0.67833018 8.3203526
-1.2729167 0.67833018 8.5203533
-1.2729167 0.67833018 8.7203531
-0.4858872 0.061414845 -0.079647213
-0.64329314 0.18479791 -0.079647213
-0.800699 0.30818099 -0.079647213
-0.95810491 0.43156406 -0.079647213
-1.1155108 0.55494714 -0.079647213
-1.2729167 0.67833018 -0.079647213
-1.4303226 0.80171329 -0.079647213
-1.5877285 0.92509633 -0.079647213
-1.7451345 1.0484794 -0.079647213
-1.9025403 1.1718625 -0.079647213
-2.0599463 1.2952455 -0.079647213
-2.2173522 1.4186286 -0.079647213
-2.3747582 1.5420117 -0.079647213
-2.5321639 1.6653947 -0.079647213
-2.6895697 1.7887778 -0.079647213
-2.8469758 1.9121609 -0.079647213
-3.0043817 2.0355439 -0.079647213
-3.1617877 2.158927 -0.079647213
-3.3191934 2.28231 -0.079647213
-3.4765995 2.4056931 -0.079647213
-3.6340053 2.5290761 -0.079647213
-3.7914109 2.6524591 -0.079647213
-3.9488173 2.7758424 -0.079647213
-4.1062231 2.8992252 -0.079647213
-4.263629 3.0226085 -0.079647213
-4.4210348 3.1459916 -0.079647213
-4.5784407 3.2693746 -0.079647213
-4.7358465 3.3927577 -0.079647213
-4.8932524 3.5161407 -0.079647213
-5.0506587 3.639524 -0.079647213
-1.4303226 0.80171329 -0.079647213
-1.4303226 0.80171329 0.12035279
-1.4303226 0.80171329 0.32035279
-1.4303226 0.80171329 0.52035284
-1.4303226 0.80171329 0.72035283
-1.4303226 0.80171329 0.92035282
-1.4303226 0.80171329 1.1203529
-1.4303226 0.80171329 1.3203528
-1.4303226 0.80171329 1.5203528
-1.4303226 0.80171329 1.7203528
-1.4303226 0.80171329 1.9203528
-1.4303226 0.80171329 2.1203527
-1.4303226 0.80171329 2.3203528
-1.4303226 0.80171329 2.5203526
-1.4303226 0.80171329 2.7203526
-1.4303226 0.80171329 2.9203527
-1.4303226 0.80171329 3.1203527
-1.4303226 0.80171329 3.3203528
-1.4303226 0.80171329 3.5203526
-1.4303226 0.80171329 3.7203526
-1.4303226 0.80171329 3.9203527
-1.4303226 0.80171329 4.1203527
-1.4303226 0.80171329 4.320353
-1.4303226 0.80171329 4.5203528
-1.4303226 0.80171329 4.7203531
-1.4303226 0.80171329 4.9203529
-1.4303226 0.80171329 5.1203527
-1.4303226 0.80171329 5.320353
-1.4303226 0.80171329 5.5203528
-1.4303226 0.80171329 5.7203531
-1.4303226 0.80171329 5.9203529
-1.4303226 0.80171329 6.1203527
-1.4303226 0.80171329 6.320353
-1.4303226 0.80171329 6.5203528
-1.4303226 0.80171329 6.7203531
-1.4303226 0.80171329 6.9203529
-1.4303226 0.80171329 7.1203527
-1.4303226 0.80171329 7.320353
-1.4303226 0.80171329 7.5203528
-1.4303226 0.80171329 7.7203531
-1.4303226 0.80171329 7.9203529
-1.4303226 0.80171329 8.1203527
-1.4303226 0.80171329 8.3203526
-1.4303226 0.80171329 8.5203533
-1.4303226 0.80171329 8.7203531
-0.4858872 0.061414845 -0.079647213
-0.64329314 0.18479791 -0.079647213
-0.800699 0.30818099 -0.079647213
-0.95810491 0.43156406 -0.079647213
-1.1155108 0.55494714 -0.079647213
-1.2729167 0.67833018 -0.079647213
-1.4303226 0.80171329 -0.079647213
-1.5877285 0.92509633 -0.079647213
-1.7451345 1.0484794 -0.079647213
-1.9025403 1.1718625 -0.079647213
-2.0599463 1.2952455 -0.079647213
-2.2173522 1.4186286 -0.079647213
-2.3747582 1.5420117 -0.079647213
-2.5321639 1.6653947 -0.079647213
-2.6895697 1.7887778 -0.079647213
-2.8469758 1.9121609 -0.079647213
-3.0043817 2.0355439 -0.079647213
-3.1617877 2.158927 -0.079647213
-3.3191934 2.28231 -0.079647213
-3.4765995 2.4056931 -0.079647213
-3.6340053 2.5290761 -0.079647213
-3.7914109 2.6524591 -0.079647213
-3.9488173 2.7758424 -0.079647213
-4.1062231 2.8992252 -0.079647213
-4.263629 3.0226085 -0.079647213
-4.4210348 3.1459916 -0.079647213
-4.5784407 3.2693746 -0.079647213
-4.7358465 3.3927577 -0.079647213
-4.8932524 3.5161407 -0.079647213
-5.0506587 3.639524 -0.079647213
-1.5877285 0.92509633 -0.079647213
-1.5877285 0.92509633 0.12035279
