# .PCD v0.7 - Point Cloud Data file format
VERSION 0.7
FIELDS x y z
SIZE 4 4 4
TYPE F F F
COUNT 1 1 1
WIDTH 1483
HEIGHT 1
VIEWPOINT 0 0 0 1 0 0 0
POINTS 1483
DATA ascii
1.1859505 -1.6772587 -0.24839944
1.293364 -1.8459666 -0.24839944
1.4007777 -2.0146742 -0.24839944
1.5081912 -2.183382 -0.24839944
1.6156049 -2.3520899 -0.24839944
1.7230185 -2.5207977 -0.24839944
1.8304319 -2.6895053 -0.24839944
1.9378456 -2.8582132 -0.24839944
1.1859505 -1.6772587 -0.24839944
1.3546582 -1.5698451 -0.24839944
1.5233661 -1.4624316 -0.24839944
1.6920739 -1.3550179 -0.24839944
1.8607817 -1.2476044 -0.24839944
2.0294895 -1.1401907 -0.24839944
2.1981974 -1.0327772 -0.24839944
2.366905 -0.9253636 -0.24839944
2.5356128 -0.81794995 -0.24839944
2.7043207 -0.71053642 -0.24839944
2.8730285 -0.60312277 -0.24839944
3.0417364 -0.49570918 -0.24839944
3.2104442 -0.38829556 -0.24839944
3.3791518 -0.28088206 -0.24839944
3.5478597 -0.17346844 -0.24839944
3.7165675 -0.066054828 -0.24839944
3.8852751 0.041358791 -0.24839944
4.0539832 0.14877242 -0.24839944
4.2226906 0.25618589 -0.24839944
4.3913984 0.36359951 -0.24839944
4.5601063 0.47101313 -0.24839944
4.7288141 0.5784266 -0.24839944
4.897522 0.68584037 -0.24839944
5.0662298 0.79325384 -0.24839944
5.2349377 0.90066761 -0.24839944
5.4036455 1.0080811 -0.24839944
5.5723529 1.1154946 -0.24839944
5.7410612 1.2229084 -0.24839944
5.9097686 1.3303218 -0.24839944
6.0784769 1.4377356 -0.24839944
1.1859505 -1.6772587 -0.24839944
1.1859505 -1.6772587 -0.048399426
1.1859505 -1.6772587 0.15160057
1.1859505 -1.6772587 0.35160059
1.1859505 -1.6772587 0.55160058
1.1859505 -1.6772587 0.75160056
1.1859505 -1.6772587 0.95160061
1.1859505 -1.6772587 1.1516006
1.1859505 -1.6772587 1.3516006
1.1859505 -1.6772587 1.5516006
1.1859505 -1.6772587 1.7516006
1.1859505 -1.6772587 1.9516007
1.1859505 -1.6772587 2.1516006
1.1859505 -1.6772587 2.3516004
1.1859505 -1.6772587 2.5516005
1.1859505 -1.6772587 2.7516005
1.1859505 -1.6772587 2.9516006
1.1859505 -1.6772587 3.1516006
1.1859505 -1.6772587 3.3516004
1.1859505 -1.6772587 3.5516005
1.1859505 -1.6772587 3.7516005
1.1859505 -1.6772587 3.9516003
1.1859505 -1.6772587 4.1516008
1.1859505 -1.6772587 4.3516006
1.1859505 -1.6772587 4.5516009
1.1859505 -1.6772587 4.7516007
1.1859505 -1.6772587 4.9516006
1.1859505 -1.6772587 5.1516008
1.1859505 -1.6772587 5.3516006
1.1859505 -1.6772587 5.5516009
1.1859505 -1.6772587 5.7516007
1.1859505 -1.6772587 5.9516006
1.1859505 -1.6772587 6.1516008
1.1859505 -1.6772587 6.3516006
1.1859505 -1.6772587 6.5516009
1.1859505 -1.6772587 6.7516007
1.1859505 -1.6772587 6.9516006
1.1859505 -1.6772587 7.1516008
1.1859505 -1.6772587 7.3516006
1.1859505 -1.6772587 7.5516009
1.1859505 -1.6772587 7.7516007
1.1859505 -1.6772587 7.9516006
1.1859505 -1.6772587 8.1515999
1.1859505 -1.6772587 8.3516006
1.1859505 -1.6772587 8.5516005
0.43405533 -0.49630418 -0.24839944
0.54146892 -0.66501194 -0.24839944
0.64888251 -0.83371979 -0.24839944
0.75629616 -1.0024276 -0.24839944
0.86370975 -1.1711353 -0.24839944
0.97112328 -1.3398432 -0.24839944
1.0785369 -1.508551 -0.24839944
1.1859505 -1.6772587 -0.24839944
1.293364 -1.8459666 -0.24839944
1.4007777 -2.0146742 -0.24839944
1.5081912 -2.183382 -0.24839944
1.6156049 -2.3520899 -0.24839944
1.7230185 -2.5207977 -0.24839944
1.8304319 -2.6895053 -0.24839944
1.9378456 -2.8582132 -0.24839944
1.293364 -1.8459666 -0.24839944
1.4620719 -1.7385529 -0.24839944
1.6307797 -1.6311394 -0.24839944
1.7994875 -1.5237257 -0.24839944
1.9681953 -1.4163122 -0.24839944
2.136903 -1.3088986 -0.24839944
2.3056109 -1.2014849 -0.24839944
2.4743187 -1.0940714 -0.24839944
2.6430266 -0.9866578 -0.24839944
2.8117342 -0.87924427 -0.24839944
2.980442 -0.77183062 -0.24839944
3.1491499 -0.66441703 -0.24839944
3.3178577 -0.55700338 -0.24839944
3.4865654 -0.44958991 -0.24839944
3.6552732 -0.34217629 -0.24839944
3.823981 -0.23476265 -0.24839944
3.9926889 -0.12734905 -0.24839944
4.1613965 -0.019935424 -0.24839944
4.3301044 0.087478064 -0.24839944
4.4988122 0.19489169 -0.24839944
4.66752 0.30230531 -0.24839944
4.8362274 0.40971878 -0.24839944
5.0049357 0.51713252 -0.24839944
5.1736431 0.62454605 -0.24839944
5.3423514 0.73195976 -0.24839944
5.5110588 0.83937329 -0.24839944
5.6797667 0.94678676 -0.24839944
5.8484745 1.0542005 -0.24839944
6.0171824 1.1616139 -0.24839944
6.1858902 1.2690277 -0.24839944
1.293364 -1.8459666 -0.24839944
1.293364 -1.8459666 -0.048399426
1.293364 -1.8459666 0.15160057
1.293364 -1.8459666 0.35160059
1.293364 -1.8459666 0.55160058
1.293364 -1.8459666 0.75160056
1.293364 -1.8459666 0.95160061
1.293364 -1.8459666 1.1516006
1.293364 -1.8459666 1.3516006
1.293364 -1.8459666 1.5516006
1.293364 -1.8459666 1.7516006
1.293364 -1.8459666 1.9516007
1.293364 -1.8459666 2.1516006
1.293364 -1.8459666 2.3516004
1.293364 -1.8459666 2.5516005
1.293364 -1.8459666 2.7516005
1.293364 -1.8459666 2.9516006
1.293364 -1.8459666 3.1516006
1.293364 -1.8459666 3.3516004
1.293364 -1.8459666 3.5516005
1.293364 -1.8459666 3.7516005
1.293364 -1.8459666 3.9516003
1.293364 -1.8459666 4.1516008
1.293364 -1.8459666 4.3516006
1.293364 -1.8459666 4.5516009
1.293364 -1.8459666 4.7516007
1.293364 -1.8459666 4.9516006
1.293364 -1.8459666 5.1516008
1.293364 -1.8459666 5.3516006
1.293364 -1.8459666 5.5516009
1.293364 -1.8459666 5.7516007
1.293364 -1.8459666 5.9516006
1.293364 -1.8459666 6.1516008
1.293364 -1.8459666 6.3516006
1.293364 -1.8459666 6.5516009
1.293364 -1.8459666 6.7516007
1.293364 -1.8459666 6.9516006
1.293364 -1.8459666 7.1516008
1.293364 -1.8459666 7.3516006
1.293364 -1.8459666 7.5516009
1.293364 -1.8459666 7.7516007
1.293364 -1.8459666 7.9516006
1.293364 -1.8459666 8.1515999
1.293364 -1.8459666 8.3516006
1.293364 -1.8459666 8.5516005
0.43405533 -0.49630418 -0.24839944
0.54146892 -0.66501194 -0.24839944
0.64888251 -0.83371979 -0.24839944
0.75629616 -1.0024276 -0.24839944
0.86370975 -1.1711353 -0.24839944
0.97112328 -1.3398432 -0.24839944
1.0785369 -1.508551 -0.24839944
1.1859505 -1.6772587 -0.24839944
1.293364 -1.8459666 -0.24839944
1.4007777 -2.0146742 -0.24839944
1.5081912 -2.183382 -0.24839944
1.6156049 -2.3520899 -0.24839944
1.7230185 -2.5207977 -0.24839944
1.8304319 -2.6895053 -0.24839944
1.9378456 -2.8582132 -0.24839944
1.4007777 -2.0146742 -0.24839944
1.5694854 -1.9072607 -0.24839944
1.7381933 -1.7998471 -0.24839944
1.906901 -1.6924335 -0.24839944
2.0756087 -1.5850199 -0.24839944
2.2443166 -1.4776063 -0.24839944
2.4130244 -1.3701926 -0.24839944
2.5817323 -1.2627791 -0.24839944
2.7504401 -1.1553656 -0.24839944
2.9191477 -1.0479519 -0.24839944
3.0878556 -0.94053835 -0.24839944
3.2565634 -0.83312476 -0.24839944
3.4252713 -0.72571111 -0.24839944
3.5939789 -0.61829764 -0.24839944
3.7626867 -0.51088399 -0.24839944
3.9313946 -0.4034704 -0.24839944
4.1001024 -0.29605678 -0.24839944
4.2688103 -0.18864316 -0.24839944
4.4375176 -0.081229672 -0.24839944
4.6062255 0.02618395 -0.24839944
4.7749333 0.13359757 -0.24839944
4.9436412 0.24101105 -0.24839944
5.112349 0.34842479 -0.24839944
5.2810569 0.45583829 -0.24839944
5.4497647 0.56325203 -0.24839944
5.6184726 0.67066556 -0.24839944
5.7871799 0.77807903 -0.24839944
5.9558883 0.88549274 -0.24839944
6.1245956 0.99290627 -0.24839944
6.293304 1.10032 -0.24839944
1.4007777 -2.0146742 -0.24839944
1.4007777 -2.0146742 -0.048399426
1.4007777 -2.0146742 0.15160057
1.4007777 -2.0146742 0.35160059
1.4007777 -2.0146742 0.55160058
1.4007777 -2.0146742 0.75160056
1.4007777 -2.0146742 0.95160061
1.4007777 -2.0146742 1.1516006
1.4007777 -2.0146742 1.3516006
1.4007777 -2.0146742 1.5516006
1.4007777 -2.0146742 1.7516006
1.4007777 -2.0146742 1.9516007
1.4007777 -2.0146742 2.1516006
1.4007777 -2.0146742 2.3516004
1.4007777 -2.0146742 2.5516005
1.4007777 -2.0146742 2.7516005
1.4007777 -2.0146742 2.9516006
1.4007777 -2.0146742 3.1516006
1.4007777 -2.0146742 3.3516004
1.4007777 -2.0146742 3.5516005
1.4007777 -2.0146742 3.7516005
1.4007777 -2.0146742 3.9516003
1.4007777 -2.0146742 4.1516008
1.4007777 -2.0146742 4.3516006
1.4007777 -2.0146742 4.5516009
1.4007777 -2.0146742 4.7516007
1.4007777 -2.0146742 4.9516006
1.4007777 -2.0146742 5.1516008
1.4007777 -2.0146742 5.3516006
1.4007777 -2.0146742 5.5516009
1.4007777 -2.0146742 5.7516007
1.4007777 -2.0146742 5.9516006
1.4007777 -2.0146742 6.1516008
1.4007777 -2.0146742 6.3516006
1.4007777 -2.0146742 6.5516009
1.4007777 -2.0146742 6.7516007
1.4007777 -2.0146742 6.9516006
1.4007777 -2.0146742 7.1516008
1.4007777 -2.0146742 7.3516006
1.4007777 -2.0146742 7.5516009
1.4007777 -2.0146742 7.7516007
1.4007777 -2.0146742 7.9516006
1.4007777 -2.0146742 8.1515999
1.4007777 -2.0146742 8.3516006
1.4007777 -2.0146742 8.5516005
0.43405533 -0.49630418 -0.24839944
0.54146892 -0.66501194 -0.24839944
0.64888251 -0.83371979 -0.24839944
0.75629616 -1.0024276 -0.24839944
0.86370975 -1.1711353 -0.24839944
0.97112328 -1.3398432 -0.24839944
1.0785369 -1.508551 -0.24839944
1.1859505 -1.6772587 -0.24839944
1.293364 -1.8459666 -0.24839944
1.4007777 -2.0146742 -0.24839944
1.5081912 -2.183382 -0.24839944
1.6156049 -2.3520899 -0.24839944
1.7230185 -2.5207977 -0.24839944
1.8304319 -2.6895053 -0.24839944
1.9378456 -2.8582132 -0.24839944
1.5081912 -2.183382 -0.24839944
1.6768991 -2.0759685 -0.24839944
1.8456069 -1.968555 -0.24839944
2.0143147 -1.8611413 -0.24839944
2.1830225 -1.7537278 -0.24839944
2.3517303 -1.6463141 -0.24839944
2.5204382 -1.5389005 -0.24839944
2.6891458 -1.431487 -0.24839944
2.8578537 -1.3240733 -0.24839944
3.0265615 -1.2166598 -0.24839944
3.1952691 -1.1092463 -0.24839944
3.363977 -1.0018326 -0.24839944
3.5326848 -0.89441895 -0.24839944
3.7013924 -0.78700548 -0.24839944
3.8701003 -0.67959183 -0.24839944
4.0388083 -0.57217824 -0.24839944
4.2075162 -0.46476462 -0.24839944
4.376224 -0.35735101 -0.24839944
4.5449314 -0.2499375 -0.24839944
4.7136393 -0.14252388 -0.24839944
4.8823471 -0.035110265 -0.24839944
5.051055 0.072303221 -0.24839944
5.2197628 0.17971697 -0.24839944
5.3884706 0.28713048 -0.24839944
5.5571785 0.39454421 -0.24839944
5.7258863 0.50195771 -0.24839944
5.8945937 0.60937119 -0.24839944
6.063302 0.71678495 -0.24839944
6.2320094 0.82419842 -0.24839944
6.4007173 0.93161219 -0.24839944
1.5081912 -2.183382 -0.24839944
1.5081912 -2.183382 -0.048399426
1.5081912 -2.183382 0.15160057
1.5081912 -2.183382 0.35160059
1.5081912 -2.183382 0.55160058
1.5081912 -2.183382 0.75160056
1.5081912 -2.183382 0.95160061
1.5081912 -2.183382 1.1516006
1.5081912 -2.183382 1.3516006
1.5081912 -2.183382 1.5516006
1.5081912 -2.183382 1.7516006
1.5081912 -2.183382 1.9516007
1.5081912 -2.183382 2.1516006
1.5081912 -2.183382 2.3516004
1.5081912 -2.183382 2.5516005
1.5081912 -2.183382 2.7516005
1.5081912 -2.183382 2.9516006
1.5081912 -2.183382 3.1516006
1.5081912 -2.183382 3.3516004
1.5081912 -2.183382 3.5516005
1.5081912 -2.183382 3.7516005
1.5081912 -2.183382 3.9516003
1.5081912 -2.183382 4.1516008
1.5081912 -2.183382 4.3516006
1.5081912 -2.183382 4.5516009
1.5081912 -2.183382 4.7516007
1.5081912 -2.183382 4.9516006
1.5081912 -2.183382 5.1516008
1.5081912 -2.183382 5.3516006
1.5081912 -2.183382 5.5516009
1.5081912 -2.183382 5.7516007
1.5081912 -2.183382 5.9516006
1.5081912 -2.183382 6.1516008
1.5081912 -2.183382 6.3516006
1.5081912 -2.183382 6.5516009
1.5081912 -2.183382 6.7516007
1.5081912 -2.183382 6.9516006
1.5081912 -2.183382 7.1516008
1.5081912 -2.183382 7.3516006
1.5081912 -2.183382 7.5516009
1.5081912 -2.183382 7.7516007
1.5081912 -2.183382 7.9516006
1.5081912 -2.183382 8.1515999
1.5081912 -2.183382 8.3516006
1.5081912 -2.183382 8.5516005
0.43405533 -0.49630418 -0.24839944
0.54146892 -0.66501194 -0.24839944
0.64888251 -0.83371979 -0.24839944
0.75629616 -1.0024276 -0.24839944
0.86370975 -1.1711353 -0.24839944
0.97112328 -1.3398432 -0.24839944
1.0785369 -1.508551 -0.24839944
1.1859505 -1.6772587 -0.24839944
1.293364 -1.8459666 -0.24839944
1.4007777 -2.0146742 -0.24839944
1.5081912 -2.183382 -0.24839944
1.6156049 -2.3520899 -0.24839944
1.7230185 -2.5207977 -0.24839944
1.8304319 -2.6895053 -0.24839944
1.9378456 -2.8582132 -0.24839944
1.6156049 -2.3520899 -0.24839944
1.7843127 -2.2446764 -0.24839944
1.9530205 -2.1372628 -0.24839944
2.1217282 -2.0298491 -0.24839944
2.290436 -1.9224355 -0.24839944
2.4591439 -1.815022 -0.24839944
2.6278517 -1.7076083 -0.24839944
2.7965593 -1.6001948 -0.24839944
2.9652672 -1.4927812 -0.24839944
3.133975 -1.3853676 -0.24839944
3.3026829 -1.277954 -0.24839944
3.4713907 -1.1705405 -0.24839944
3.6400986 -1.0631268 -0.24839944
3.8088062 -0.95571333 -0.24839944
3.977514 -0.84829968 -0.24839944
4.1462216 -0.74088609 -0.24839944
4.3149295 -0.63347244 -0.24839944
4.4836373 -0.52605885 -0.24839944
4.6523452 -0.41864535 -0.24839944
4.821053 -0.31123173 -0.24839944
4.9897609 -0.2038181 -0.24839944
5.1584682 -0.096404612 -0.24839944
5.3271766 0.011009135 -0.24839944
5.4958839 0.11842263 -0.24839944
5.6645923 0.22583637 -0.24839944
5.8332996 0.33324987 -0.24839944
6.0020075 0.44066337 -0.24839944
6.1707153 0.54807711 -0.24839944
6.3394232 0.65549058 -0.24839944
6.508131 0.76290435 -0.24839944
1.6156049 -2.3520899 -0.24839944
1.6156049 -2.3520899 -0.048399426
1.6156049 -2.3520899 0.15160057
1.6156049 -2.3520899 0.35160059
1.6156049 -2.3520899 0.55160058
1.6156049 -2.3520899 0.75160056
1.6156049 -2.3520899 0.95160061
1.6156049 -2.3520899 1.1516006
1.6156049 -2.3520899 1.3516006
1.6156049 -2.3520899 1.5516006
1.6156049 -2.3520899 1.7516006
1.6156049 -2.3520899 1.9516007
1.6156049 -2.3520899 2.1516006
1.6156049 -2.3520899 2.3516004
1.6156049 -2.3520899 2.5516005
1.6156049 -2.3520899 2.7516005
1.6156049 -2.3520899 2.9516006
1.6156049 -2.3520899 3.1516006
1.6156049 -2.3520899 3.3516004
1.6156049 -2.3520899 3.5516005
1.6156049 -2.3520899 3.7516005
1.6156049 -2.3520899 3.9516003
1.6156049 -2.3520899 4.1516008
1.6156049 -2.3520899 4.3516006
1.6156049 -2.3520899 4.5516009
1.6156049 -2.3520899 4.7516007
1.6156049 -2.3520899 4.9516006
1.6156049 -2.3520899 5.1516008
1.6156049 -2.3520899 5.3516006
1.6156049 -2.3520899 5.5516009
1.6156049 -2.3520899 5.7516007
1.6156049 -2.3520899 5.9516006
1.6156049 -2.3520899 6.1516008
1.6156049 -2.3520899 6.3516006
1.6156049 -2.3520899 6.5516009
1.6156049 -2.3520899 6.7516007
1.6156049 -2.3520899 6.9516006
1.6156049 -2.3520899 7.1516008
1.6156049 -2.3520899 7.3516006
1.6156049 -2.3520899 7.5516009
1.6156049 -2.3520899 7.7516007
1.6156049 -2.3520899 7.9516006
1.6156049 -2.3520899 8.1515999
1.6156049 -2.3520899 8.3516006
1.6156049 -2.3520899 8.5516005
0.43405533 -0.49630418 -0.24839944
0.54146892 -0.66501194 -0.24839944
0.64888251 -0.83371979 -0.24839944
0.75629616 -1.0024276 -0.24839944
0.86370975 -1.1711353 -0.24839944
0.97112328 -1.3398432 -0.24839944
1.0785369 -1.508551 -0.24839944
1.1859505 -1.6772587 -0.24839944
1.293364 -1.8459666 -0.24839944
1.4007777 -2.0146742 -0.24839944
1.5081912 -2.183382 -0.24839944
1.6156049 -2.3520899 -0.24839944
1.7230185 -2.5207977 -0.24839944
1.8304319 -2.6895053 -0.24839944
1.9378456 -2.8582132 -0.24839944
1.7230185 -2.5207977 -0.24839944
1.8917263 -2.4133842 -0.24839944
2.0604341 -2.3059707 -0.24839944
2.229142 -2.1985569 -0.24839944
2.3978498 -2.0911434 -0.24839944
2.5665574 -1.9837298 -0.24839944
2.7352653 -1.8763162 -0.24839944
2.9039731 -1.7689027 -0.24839944
3.072681 -1.661489 -0.24839944
3.2413886 -1.5540755 -0.24839944
3.4100964 -1.4466618 -0.24839944
3.5788043 -1.3392483 -0.24839944
3.7475121 -1.2318347 -0.24839944
3.9162197 -1.1244211 -0.24839944
4.0849276 -1.0170075 -0.24839944
4.2536354 -0.90959388 -0.24839944
4.4223433 -0.80218029 -0.24839944
4.5910511 -0.69476664 -0.24839944
4.7597589 -0.58735317 -0.24839944
4.9284668 -0.47993955 -0.24839944
5.0971742 -0.37252593 -0.24839944
5.265882 -0.26511246 -0.24839944
5.4345899 -0.15769871 -0.24839944
5.6032977 -0.050285209 -0.24839944
5.7720056 0.057128537 -0.24839944
5.9407134 0.16454203 -0.24839944
6.1094208 0.27195552 -0.24839944
6.2781291 0.37936926 -0.24839944
6.4468365 0.48678276 -0.24839944
6.6155448 0.5941965 -0.24839944
1.7230185 -2.5207977 -0.24839944
1.7230185 -2.5207977 -0.048399426
1.7230185 -2.5207977 0.15160057
1.7230185 -2.5207977 0.35160059
1.7230185 -2.5207977 0.55160058
1.7230185 -2.5207977 0.75160056
1.7230185 -2.5207977 0.95160061
1.7230185 -2.5207977 1.1516006
1.7230185 -2.5207977 1.3516006
1.7230185 -2.5207977 1.5516006
1.7230185 -2.5207977 1.7516006
1.7230185 -2.5207977 1.9516007
1.7230185 -2.5207977 2.1516006
1.7230185 -2.5207977 2.3516004
1.7230185 -2.5207977 2.5516005
1.7230185 -2.5207977 2.7516005
1.7230185 -2.5207977 2.9516006
1.7230185 -2.5207977 3.1516006
1.7230185 -2.5207977 3.3516004
1.7230185 -2.5207977 3.5516005
1.7230185 -2.5207977 3.7516005
1.7230185 -2.5207977 3.9516003
1.7230185 -2.5207977 4.1516008
1.7230185 -2.5207977 4.3516006
1.7230185 -2.5207977 4.5516009
1.7230185 -2.5207977 4.7516007
1.7230185 -2.5207977 4.9516006
1.7230185 -2.5207977 5.1516008
1.7230185 -2.5207977 5.3516006
1.7230185 -2.5207977 5.5516009
1.7230185 -2.5207977 5.7516007
1.7230185 -2.5207977 5.9516006
1.7230185 -2.5207977 6.1516008
1.7230185 -2.5207977 6.3516006
1.7230185 -2.5207977 6.5516009
1.7230185 -2.5207977 6.7516007
1.7230185 -2.5207977 6.9516006
1.7230185 -2.5207977 7.1516008
1.7230185 -2.5207977 7.3516006
1.7230185 -2.5207977 7.5516009
1.7230185 -2.5207977 7.7516007
1.7230185 -2.5207977 7.9516006
1.7230185 -2.5207977 8.1515999
1.7230185 -2.5207977 8.3516006
1.7230185 -2.5207977 8.5516005
0.43405533 -0.49630418 -0.24839944
0.54146892 -0.66501194 -0.24839944
0.64888251 -0.83371979 -0.24839944
0.75629616 -1.0024276 -0.24839944
0.86370975 -1.1711353 -0.24839944
0.97112328 -1.3398432 -0.24839944
1.0785369 -1.508551 -0.24839944
1.1859505 -1.6772587 -0.24839944
1.293364 -1.8459666 -0.24839944
1.4007777 -2.0146742 -0.24839944
1.5081912 -2.183382 -0.24839944
1.6156049 -2.3520899 -0.24839944
1.7230185 -2.5207977 -0.24839944
1.8304319 -2.6895053 -0.24839944
1.9378456 -2.8582132 -0.24839944
1.8304319 -2.6895053 -0.24839944
1.9991398 -2.5820918 -0.24839944
2.1678476 -2.4746783 -0.24839944
2.3365555 -2.3672647 -0.24839944
2.5052631 -2.259851 -0.24839944
2.6739709 -2.1524374 -0.24839944
2.8426788 -2.0450239 -0.24839944
3.0113866 -1.9376103 -0.24839944
3.1800945 -1.8301966 -0.24839944
3.3488021 -1.7227831 -0.24839944
3.5175099 -1.6153696 -0.24839944
3.6862178 -1.5079559 -0.24839944
3.8549256 -1.4005423 -0.24839944
4.0236335 -1.2931287 -0.24839944
4.1923409 -1.1857152 -0.24839944
4.3610487 -1.0783015 -0.24839944
4.5297565 -0.9708879 -0.24839944
4.6984644 -0.86347431 -0.24839944
4.8671722 -0.75606078 -0.24839944
5.0358801 -0.64864719 -0.24839944
5.2045879 -0.5412336 -0.24839944
5.3732953 -0.43382007 -0.24839944
5.5420036 -0.32640633 -0.24839944
5.710711 -0.21899284 -0.24839944
5.8794193 -0.1115791 -0.24839944
6.0481267 -0.0041656061 -0.24839944
6.2168345 0.10324788 -0.24839944
6.3855424 0.21066163 -0.24839944
6.5542502 0.31807512 -0.24839944
6.7229581 0.42548886 -0.24839944
1.8304319 -2.6895053 -0.24839944
1.8304319 -2.6895053 -0.048399426
1.8304319 -2.6895053 0.15160057
1.8304319 -2.6895053 0.35160059
1.8304319 -2.6895053 0.55160058
1.8304319 -2.6895053 0.75160056
1.8304319 -2.6895053 0.95160061
1.8304319 -2.6895053 1.1516006
1.8304319 -2.6895053 1.3516006
1.8304319 -2.6895053 1.5516006
1.8304319 -2.6895053 1.7516006
1.8304319 -2.6895053 1.9516007
1.8304319 -2.6895053 2.1516006
1.8304319 -2.6895053 2.3516004
1.8304319 -2.6895053 2.5516005
1.8304319 -2.6895053 2.7516005
1.8304319 -2.6895053 2.9516006
1.8304319 -2.6895053 3.1516006
1.8304319 -2.6895053 3.3516004
1.8304319 -2.6895053 3.5516005
1.8304319 -2.6895053 3.7516005
1.8304319 -2.6895053 3.9516003
1.8304319 -2.6895053 4.1516008
1.8304319 -2.6895053 4.3516006
1.8304319 -2.6895053 4.5516009
1.8304319 -2.6895053 4.7516007
1.8304319 -2.6895053 4.9516006
1.8304319 -2.6895053 5.1516008
1.8304319 -2.6895053 5.3516006
1.8304319 -2.6895053 5.5516009
1.8304319 -2.6895053 5.7516007
1.8304319 -2.6895053 5.9516006
1.8304319 -2.6895053 6.1516008
1.8304319 -2.6895053 6.3516006
1.8304319 -2.6895053 6.5516009
1.8304319 -2.6895053 6.7516007
1.8304319 -2.6895053 6.9516006
1.8304319 -2.6895053 7.1516008
1.8304319 -2.6895053 7.3516006
1.8304319 -2.6895053 7.5516009
1.8304319 -2.6895053 7.7516007
1.8304319 -2.6895053 7.9516006
1.8304319 -2.6895053 8.1515999
1.8304319 -2.6895053 8.3516006
1.8304319 -2.6895053 8.5516005
0.43405533 -0.49630418 -0.24839944
0.54146892 -0.66501194 -0.24839944
0.64888251 -0.83371979 -0.24839944
0.75629616 -1.0024276 -0.24839944
0.86370975 -1.1711353 -0.24839944
0.97112328 -1.3398432 -0.24839944
1.0785369 -1.508551 -0.24839944
1.1859505 -1.6772587 -0.24839944
1.293364 -1.8459666 -0.24839944
1.4007777 -2.0146742 -0.24839944
1.5081912 -2.183382 -0.24839944
1.6156049 -2.3520899 -0.24839944
1.7230185 -2.5207977 -0.24839944
1.8304319 -2.6895053 -0.24839944
1.9378456 -2.8582132 -0.24839944
1.9378456 -2.8582132 -0.24839944
2.1065533 -2.7507997 -0.24839944
2.2752612 -2.6433861 -0.24839944
2.443969 -2.5359724 -0.24839944
2.6126769 -2.4285588 -0.24839944
2.7813847 -2.3211453 -0.24839944
2.9500923 -2.2137318 -0.24839944
3.1188002 -2.1063182 -0.24839944
3.287508 -1.9989045 -0.24839944
3.4562156 -1.8914909 -0.24839944
3.6249235 -1.7840773 -0.24839944
3.7936313 -1.6766638 -0.24839944
3.9623392 -1.5692501 -0.24839944
4.1310468 -1.4618366 -0.24839944
4.2997546 -1.354423 -0.24839944
4.4684625 -1.2470094 -0.24839944
4.6371703 -1.1395957 -0.24839944
4.8058782 -1.0321821 -0.24839944
4.974586 -0.92476863 -0.24839944
5.1432939 -0.81735504 -0.24839944
5.3120017 -0.70994139 -0.24839944
5.4807091 -0.60252792 -0.24839944
5.6494174 -0.49511418 -0.24839944
5.8181248 -0.38770068 -0.24839944
5.9868326 -0.28028694 -0.24839944
6.1555405 -0.17287344 -0.24839944
6.3242483 -0.065459952 -0.24839944
6.4929562 0.041953795 -0.24839944
6.661664 0.14936729 -0.24839944
6.8303719 0.25678104 -0.24839944
1.9378456 -2.8582132 -0.24839944
1.9378456 -2.8582132 -0.048399426
1.9378456 -2.8582132 0.15160057
1.9378456 -2.8582132 0.35160059
1.9378456 -2.8582132 0.55160058
1.9378456 -2.8582132 0.75160056
1.9378456 -2.8582132 0.95160061
1.9378456 -2.8582132 1.1516006
1.9378456 -2.8582132 1.3516006
1.9378456 -2.8582132 1.5516006
1.9378456 -2.8582132 1.7516006
1.9378456 -2.8582132 1.9516007
1.9378456 -2.8582132 2.1516006
1.9378456 -2.8582132 2.3516004
1.9378456 -2.8582132 2.5516005
1.9378456 -2.8582132 2.7516005
1.9378456 -2.8582132 2.9516006
1.9378456 -2.8582132 3.1516006
1.9378456 -2.8582132 3.3516004
1.9378456 -2.8582132 3.5516005
1.9378456 -2.8582132 3.7516005
1.9378456 -2.8582132 3.9516003
1.9378456 -2.8582132 4.1516008
1.9378456 -2.8582132 4.3516006
1.9378456 -2.8582132 4.5516009
1.9378456 -2.8582132 4.7516007
1.9378456 -2.8582132 4.9516006
1.9378456 -2.8582132 5.1516008
1.9378456 -2.8582132 5.3516006
1.9378456 -2.8582132 5.5516009
1.9378456 -2.8582132 5.7516007
1.9378456 -2.8582132 5.9516006
1.9378456 -2.8582132 6.1516008
1.9378456 -2.8582132 6.3516006
1.9378456 -2.8582132 6.5516009
1.9378456 -2.8582132 6.7516007
1.9378456 -2.8582132 6.9516006
1.9378456 -2.8582132 7.1516008
1.9378456 -2.8582132 7.3516006
1.9378456 -2.8582132 7.5516009
1.9378456 -2.8582132 7.7516007
1.9378456 -2.8582132 7.9516006
1.9378456 -2.8582132 8.1515999
1.9378456 -2.8582132 8.3516006
1.9378456 -2.8582132 8.5516005
0.43405533 -0.49630418 -0.24839944
0.60276312 -0.38889059 -0.24839944
0.77147096 -0.28147697 -0.24839944
0.94017875 -0.17406338 -0.24839944
1.1088865 -0.066649795 -0.24839944
1.2775943 0.040763792 -0.24839944
1.4463022 0.14817742 -0.24839944
1.6150099 0.25559098 -0.24839944
1.7837178 0.3630046 -0.24839944
1.9524255 0.47041813 -0.24839944
2.1211333 0.57783175 -0.24839944
2.2898412 0.68524539 -0.24839944
2.458549 0.79265898 -0.24839944
2.6272566 0.90007246 -0.24839944
2.7959645 1.0074861 -0.24839944
2.9646723 1.1148998 -0.24839944
3.1333802 1.2223133 -0.24839944
3.302088 1.3297269 -0.24839944
3.4707956 1.4371405 -0.24839944
3.6395035 1.5445541 -0.24839944
3.8082113 1.6519676 -0.24839944
3.9769189 1.7593812 -0.24839944
4.145627 1.8667949 -0.24839944
4.3143344 1.9742084 -0.24839944
4.4830427 2.0816221 -0.24839944
4.6517501 2.1890357 -0.24839944
4.8204579 2.2964492 -0.24839944
4.9891658 2.403863 -0.24839944
5.1578736 2.5112765 -0.24839944
5.3265815 2.61869 -0.24839944
0.43405533 -0.49630418 -0.24839944
0.43405533 -0.49630418 -0.048399426
0.43405533 -0.49630418 0.15160057
0.43405533 -0.49630418 0.35160059
0.43405533 -0.49630418 0.55160058
0.43405533 -0.49630418 0.75160056
0.43405533 -0.49630418 0.95160061
0.43405533 -0.49630418 1.1516006
0.43405533 -0.49630418 1.3516006
0.43405533 -0.49630418 1.5516006
0.43405533 -0.49630418 1.7516006
0.43405533 -0.49630418 1.9516007
0.43405533 -0.49630418 2.1516006
0.43405533 -0.49630418 2.3516004
0.43405533 -0.49630418 2.5516005
0.43405533 -0.49630418 2.7516005
0.43405533 -0.49630418 2.9516006
0.43405533 -0.49630418 3.1516006
0.43405533 -0.49630418 3.3516004
0.43405533 -0.49630418 3.5516005
0.43405533 -0.49630418 3.7516005
0.43405533 -0.49630418 3.9516003
0.43405533 -0.49630418 4.1516008
0.43405533 -0.49630418 4.3516006
0.43405533 -0.49630418 4.5516009
0.43405533 -0.49630418 4.7516007
0.43405533 -0.49630418 4.9516006
0.43405533 -0.49630418 5.1516008
0.43405533 -0.49630418 5.3516006
0.43405533 -0.49630418 5.5516009
0.43405533 -0.49630418 5.7516007
0.43405533 -0.49630418 5.9516006
0.43405533 -0.49630418 6.1516008
0.43405533 -0.49630418 6.3516006
0.43405533 -0.49630418 6.5516009
0.43405533 -0.49630418 6.7516007
0.43405533 -0.49630418 6.9516006
0.43405533 -0.49630418 7.1516008
0.43405533 -0.49630418 7.3516006
0.43405533 -0.49630418 7.5516009
0.43405533 -0.49630418 7.7516007
0.43405533 -0.49630418 7.9516006
0.43405533 -0.49630418 8.1515999
0.43405533 -0.49630418 8.3516006
0.43405533 -0.49630418 8.5516005
0.43405533 -0.49630418 -0.24839944
0.60276312 -0.38889059 -0.24839944
0.77147096 -0.28147697 -0.24839944
0.94017875 -0.17406338 -0.24839944
1.1088865 -0.066649795 -0.24839944
1.2775943 0.040763792 -0.24839944
1.4463022 0.14817742 -0.24839944
1.6150099 0.25559098 -0.24839944
1.7837178 0.3630046 -0.24839944
1.9524255 0.47041813 -0.24839944
2.1211333 0.57783175 -0.24839944
2.2898412 0.68524539 -0.24839944
2.458549 0.79265898 -0.24839944
2.6272566 0.90007246 -0.24839944
2.7959645 1.0074861 -0.24839944
2.9646723 1.1148998 -0.24839944
3.1333802 1.2223133 -0.24839944
3.302088 1.3297269 -0.24839944
3.4707956 1.4371405 -0.24839944
3.6395035 1.5445541 -0.24839944
3.8082113 1.6519676 -0.24839944
3.9769189 1.7593812 -0.24839944
4.145627 1.8667949 -0.24839944
4.3143344 1.9742084 -0.24839944
4.4830427 2.0816221 -0.24839944
4.6517501 2.1890357 -0.24839944
4.8204579 2.2964492 -0.24839944
4.9891658 2.403863 -0.24839944
5.1578736 2.5112765 -0.24839944
5.3265815 2.61869 -0.24839944
0.60276312 -0.38889059 -0.24839944
0.60276312 -0.38889059 -0.048399426
0.60276312 -0.38889059 0.15160057
0.60276312 -0.38889059 0.35160059
0.60276312 -0.38889059 0.55160058
0.60276312 -0.38889059 0.75160056
0.60276312 -0.38889059 0.95160061
0.60276312 -0.38889059 1.1516006
0.60276312 -0.38889059 1.3516006
0.60276312 -0.38889059 1.5516006
0.60276312 -0.38889059 1.7516006
0.60276312 -0.38889059 1.9516007
0.60276312 -0.38889059 2.1516006
0.60276312 -0.38889059 2.3516004
0.60276312 -0.38889059 2.5516005
0.60276312 -0.38889059 2.7516005
0.60276312 -0.38889059 2.9516006
0.60276312 -0.38889059 3.1516006
0.60276312 -0.38889059 3.3516004
0.60276312 -0.38889059 3.5516005
0.60276312 -0.38889059 3.7516005
0.60276312 -0.38889059 3.9516003
0.60276312 -0.38889059 4.1516008
0.60276312 -0.38889059 4.3516006
0.60276312 -0.38889059 4.5516009
0.60276312 -0.38889059 4.7516007
0.60276312 -0.38889059 4.9516006
0.60276312 -0.38889059 5.1516008
0.60276312 -0.38889059 5.3516006
0.60276312 -0.38889059 5.5516009
0.60276312 -0.38889059 5.7516007
0.60276312 -0.38889059 5.9516006
0.60276312 -0.38889059 6.1516008
0.60276312 -0.38889059 6.3516006
0.60276312 -0.38889059 6.5516009
0.60276312 -0.38889059 6.7516007
0.60276312 -0.38889059 6.9516006
0.60276312 -0.38889059 7.1516008
0.60276312 -0.38889059 7.3516006
0.60276312 -0.38889059 7.5516009
0.60276312 -0.38889059 7.7516007
0.60276312 -0.38889059 7.9516006
0.60276312 -0.38889059 8.1515999
0.60276312 -0.38889059 8.3516006
0.60276312 -0.38889059 8.5516005
0.43405533 -0.49630418 -0.24839944
0.60276312 -0.38889059 -0.24839944
0.77147096 -0.28147697 -0.24839944
0.94017875 -0.17406338 -0.24839944
1.1088865 -0.066649795 -0.24839944
1.2775943 0.040763792 -0.24839944
1.4463022 0.14817742 -0.24839944
1.6150099 0.25559098 -0.24839944
1.7837178 0.3630046 -0.24839944
1.9524255 0.47041813 -0.24839944
2.1211333 0.57783175 -0.24839944
2.2898412 0.68524539 -0.24839944
2.458549 0.79265898 -0.24839944
2.6272566 0.90007246 -0.24839944
2.7959645 1.0074861 -0.24839944
2.9646723 1.1148998 -0.24839944
3.1333802 1.2223133 -0.24839944
3.302088 1.3297269 -0.24839944
3.4707956 1.4371405 -0.24839944
3.6395035 1.5445541 -0.24839944
3.8082113 1.6519676 -0.24839944
3.9769189 1.7593812 -0.24839944
4.145627 1.8667949 -0.24839944
4.3143344 1.9742084 -0.24839944
4.4830427 2.0816221 -0.24839944
4.6517501 2.1890357 -0.24839944
4.8204579 2.2964492 -0.24839944
4.9891658 2.403863 -0.24839944
5.1578736 2.5112765 -0.24839944
5.3265815 2.61869 -0.24839944
0.77147096 -0.28147697 -0.24839944
0.77147096 -0.28147697 -0.048399426
0.77147096 -0.28147697 0.15160057
0.77147096 -0.28147697 0.35160059
0.77147096 -0.28147697 0.55160058
0.77147096 -0.28147697 0.75160056
0.77147096 -0.28147697 0.95160061
0.77147096 -0.28147697 1.1516006
0.77147096 -0.28147697 1.3516006
0.77147096 -0.28147697 1.5516006
0.77147096 -0.28147697 1.7516006
0.77147096 -0.28147697 1.9516007
0.77147096 -0.28147697 2.1516006
0.77147096 -0.28147697 2.3516004
0.77147096 -0.28147697 2.5516005
0.77147096 -0.28147697 2.7516005
0.77147096 -0.28147697 2.9516006
0.77147096 -0.28147697 3.1516006
0.77147096 -0.28147697 3.3516004
0.77147096 -0.28147697 3.5516005
0.77147096 -0.28147697 3.7516005
0.77147096 -0.28147697 3.9516003
0.77147096 -0.28147697 4.1516008
0.77147096 -0.28147697 4.3516006
0.77147096 -0.28147697 4.5516009
0.77147096 -0.28147697 4.7516007
0.77147096 -0.28147697 4.9516006
0.77147096 -0.28147697 5.1516008
0.77147096 -0.28147697 5.3516006
0.77147096 -0.28147697 5.5516009
0.77147096 -0.28147697 5.7516007
0.77147096 -0.28147697 5.9516006
0.77147096 -0.28147697 6.1516008
0.77147096 -0.28147697 6.3516006
0.77147096 -0.28147697 6.5516009
0.77147096 -0.28147697 6.7516007
0.77147096 -0.28147697 6.9516006
0.77147096 -0.28147697 7.1516008
0.77147096 -0.28147697 7.3516006
0.77147096 -0.28147697 7.5516009
0.77147096 -0.28147697 7.7516007
0.77147096 -0.28147697 7.9516006
0.77147096 -0.28147697 8.1515999
0.77147096 -0.28147697 8.3516006
0.77147096 -0.28147697 8.5516005
0.43405533 -0.49630418 -0.24839944
0.60276312 -0.38889059 -0.24839944
0.77147096 -0.28147697 -0.24839944
0.94017875 -0.17406338 -0.24839944
1.1088865 -0.066649795 -0.24839944
1.2775943 0.040763792 -0.24839944
1.4463022 0.14817742 -0.24839944
1.6150099 0.25559098 -0.24839944
1.7837178 0.3630046 -0.24839944
1.9524255 0.47041813 -0.24839944
2.1211333 0.57783175 -0.24839944
2.2898412 0.68524539 -0.24839944
2.458549 0.79265898 -0.24839944
2.6272566 0.90007246 -0.24839944
2.7959645 1.0074861 -0.24839944
2.9646723 1.1148998 -0.24839944
3.1333802 1.2223133 -0.24839944
3.302088 1.3297269 -0.24839944
3.4707956 1.4371405 -0.24839944
3.6395035 1.5445541 -0.24839944
3.8082113 1.6519676 -0.24839944
3.9769189 1.7593812 -0.24839944
4.145627 1.8667949 -0.24839944
4.3143344 1.9742084 -0.24839944
4.4830427 2.0816221 -0.24839944
4.6517501 2.1890357 -0.24839944
4.8204579 2.2964492 -0.24839944
4.9891658 2.403863 -0.24839944
5.1578736 2.5112765 -0.24839944
5.3265815 2.61869 -0.24839944
0.94017875 -0.17406338 -0.24839944
0.94017875 -0.17406338 -0.048399426
0.94017875 -0.17406338 0.15160057
0.94017875 -0.17406338 0.35160059
0.94017875 -0.17406338 0.55160058
0.94017875 -0.17406338 0.75160056
0.94017875 -0.17406338 0.95160061
0.94017875 -0.17406338 1.1516006
0.94017875 -0.17406338 1.3516006
0.94017875 -0.17406338 1.5516006
0.94017875 -0.17406338 1.7516006
0.94017875 -0.17406338 1.9516007
0.94017875 -0.17406338 2.1516006
0.94017875 -0.17406338 2.3516004
0.94017875 -0.17406338 2.5516005
0.94017875 -0.17406338 2.7516005
0.94017875 -0.17406338 2.9516006
0.94017875 -0.17406338 3.1516006
0.94017875 -0.17406338 3.3516004
0.94017875 -0.17406338 3.5516005
0.94017875 -0.17406338 3.7516005
0.94017875 -0.17406338 3.9516003
0.94017875 -0.17406338 4.1516008
0.94017875 -0.17406338 4.3516006
0.94017875 -0.17406338 4.5516009
0.94017875 -0.17406338 4.7516007
0.94017875 -0.17406338 4.9516006
0.94017875 -0.17406338 5.1516008
0.94017875 -0.17406338 5.3516006
0.94017875 -0.17406338 5.5516009
0.94017875 -0.17406338 5.7516007
0.94017875 -0.17406338 5.9516006
0.94017875 -0.17406338 6.1516008
0.94017875 -0.17406338 6.3516006
0.94017875 -0.17406338 6.5516009
0.94017875 -0.17406338 6.7516007
0.94017875 -0.17406338 6.9516006
0.94017875 -0.17406338 7.1516008
0.94017875 -0.17406338 7.3516006
0.94017875 -0.17406338 7.5516009
0.94017875 -0.17406338 7.7516007
0.94017875 -0.17406338 7.9516006
0.94017875 -0.17406338 8.1515999
0.94017875 -0.17406338 8.3516006
0.94017875 -0.17406338 8.5516005
0.43405533 -0.49630418 -0.24839944
0.60276312 -0.38889059 -0.24839944
0.77147096 -0.28147697 -0.24839944
0.94017875 -0.17406338 -0.24839944
1.1088865 -0.066649795 -0.24839944
1.2775943 0.040763792 -0.24839944
1.4463022 0.14817742 -0.24839944
1.6150099 0.25559098 -0.24839944
1.7837178 0.3630046 -0.24839944
1.9524255 0.47041813 -0.24839944
2.1211333 0.57783175 -0.24839944
2.2898412 0.68524539 -0.24839944
2.458549 0.79265898 -0.24839944
2.6272566 0.90007246 -0.24839944
2.7959645 1.0074861 -0.24839944
2.9646723 1.1148998 -0.24839944
3.1333802 1.2223133 -0.24839944
3.302088 1.3297269 -0.24839944
3.4707956 1.4371405 -0.24839944
3.6395035 1.5445541 -0.24839944
3.8082113 1.6519676 -0.24839944
3.9769189 1.7593812 -0.24839944
4.145627 1.8667949 -0.24839944
4.3143344 1.9742084 -0.24839944
4.4830427 2.0816221 -0.24839944
4.6517501 2.1890357 -0.24839944
4.8204579 2.2964492 -0.24839944
4.9891658 2.403863 -0.24839944
5.1578736 2.5112765 -0.24839944
5.3265815 2.61869 -0.24839944
1.1088865 -0.066649795 -0.24839944
1.1088865 -0.066649795 -0.048399426
1.1088865 -0.066649795 0.15160057
1.1088865 -0.066649795 0.35160059
1.1088865 -0.066649795 0.55160058
1.1088865 -0.066649795 0.75160056
1.1088865 -0.066649795 0.95160061
1.1088865 -0.066649795 1.1516006
1.1088865 -0.066649795 1.3516006
1.1088865 -0.066649795 1.5516006
1.1088865 -0.066649795 1.7516006
1.1088865 -0.066649795 1.9516007
1.1088865 -0.066649795 2.1516006
1.1088865 -0.066649795 2.3516004
1.1088865 -0.066649795 2.5516005
1.1088865 -0.066649795 2.7516005
1.1088865 -0.066649795 2.9516006
1.1088865 -0.066649795 3.1516006
1.1088865 -0.066649795 3.3516004
1.1088865 -0.066649795 3.5516005
1.1088865 -0.066649795 3.7516005
1.1088865 -0.066649795 3.9516003
1.1088865 -0.066649795 4.1516008
1.1088865 -0.066649795 4.3516006
1.1088865 -0.066649795 4.5516009
1.1088865 -0.066649795 4.7516007
1.1088865 -0.066649795 4.9516006
1.1088865 -0.066649795 5.1516008
1.1088865 -0.066649795 5.3516006
1.1088865 -0.066649795 5.5516009
1.1088865 -0.066649795 5.7516007
1.1088865 -0.066649795 5.9516006
1.1088865 -0.066649795 6.1516008
1.1088865 -0.066649795 6.3516006
1.1088865 -0.066649795 6.5516009
1.1088865 -0.066649795 6.7516007
1.1088865 -0.066649795 6.9516006
1.1088865 -0.066649795 7.1516008
1.1088865 -0.066649795 7.3516006
1.1088865 -0.066649795 7.5516009
1.1088865 -0.066649795 7.7516007
1.1088865 -0.066649795 7.9516006
1.1088865 -0.066649795 8.1515999
1.1088865 -0.066649795 8.3516006
1.1088865 -0.066649795 8.5516005
0.43405533 -0.49630418 -0.24839944
0.60276312 -0.38889059 -0.24839944
0.77147096 -0.28147697 -0.24839944
0.94017875 -0.17406338 -0.24839944
1.1088865 -0.066649795 -0.24839944
1.2775943 0.040763792 -0.24839944
1.4463022 0.14817742 -0.24839944
1.6150099 0.25559098 -0.24839944
1.7837178 0.3630046 -0.24839944
1.9524255 0.47041813 -0.24839944
2.1211333 0.57783175 -0.24839944
2.2898412 0.68524539 -0.24839944
2.458549 0.79265898 -0.24839944
2.6272566 0.90007246 -0.24839944
2.7959645 1.0074861 -0.24839944
2.9646723 1.1148998 -0.24839944
3.1333802 1.2223133 -0.24839944
3.302088 1.3297269 -0.24839944
3.4707956 1.4371405 -0.24839944
3.6395035 1.5445541 -0.24839944
3.8082113 1.6519676 -0.24839944
3.9769189 1.7593812 -0.24839944
4.145627 1.8667949 -0.24839944
4.3143344 1.9742084 -0.24839944
4.4830427 2.0816221 -0.24839944
4.6517501 2.1890357 -0.24839944
4.8204579 2.2964492 -0.24839944
4.9891658 2.403863 -0.24839944
5.1578736 2.5112765 -0.24839944
5.3265815 2.61869 -0.24839944
1.2775943 0.040763792 -0.24839944
1.2775943 0.040763792 -0.048399426
1.2775943 0.040763792 0.15160057
1.2775943 0.040763792 0.35160059
1.2775943 0.040763792 0.55160058
1.2775943 0.040763792 0.75160056
1.2775943 0.040763792 0.95160061
1.2775943 0.040763792 1.1516006
1.2775943 0.040763792 1.3516006
1.2775943 0.040763792 1.5516006
1.2775943 0.040763792 1.7516006
1.2775943 0.040763792 1.9516007
1.2775943 0.040763792 2.1516006
1.2775943 0.040763792 2.3516004
1.2775943 0.040763792 2.5516005
1.2775943 0.040763792 2.7516005
1.2775943 0.040763792 2.9516006
1.2775943 0.040763792 3.1516006
1.2775943 0.040763792 3.3516004
1.2775943 0.040763792 3.5516005
1.2775943 0.040763792 3.7516005
1.2775943 0.040763792 3.9516003
1.2775943 0.040763792 4.1516008
1.2775943 0.040763792 4.3516006
1.2775943 0.040763792 4.5516009
1.2775943 0.040763792 4.7516007
1.2775943 0.040763792 4.9516006
1.2775943 0.040763792 5.1516008
1.2775943 0.040763792 5.3516006
1.2775943 0.040763792 5.5516009
1.2775943 0.040763792 5.7516007
1.2775943 0.040763792 5.9516006
1.2775943 0.040763792 6.1516008
1.2775943 0.040763792 6.3516006
1.2775943 0.040763792 6.5516009
1.2775943 0.040763792 6.7516007
1.2775943 0.040763792 6.9516006
1.2775943 0.040763792 7.1516008
1.2775943 0.040763792 7.3516006
1.2775943 0.040763792 7.5516009
1.2775943 0.040763792 7.7516007
1.2775943 0.040763792 7.9516006
1.2775943 0.040763792 8.1515999
1.2775943 0.040763792 8.3516006
1.2775943 0.040763792 8.5516005
0.43405533 -0.49630418 -0.24839944
0.60276312 -0.38889059 -0.24839944
0.77147096 -0.28147697 -0.24839944
0.94017875 -0.17406338 -0.24839944
1.1088865 -0.066649795 -0.24839944
1.2775943 0.040763792 -0.24839944
1.4463022 0.14817742 -0.24839944
1.6150099 0.25559098 -0.24839944
1.7837178 0.3630046 -0.24839944
1.9524255 0.47041813 -0.24839944
2.1211333 0.57783175 -0.24839944
2.2898412 0.68524539 -0.24839944
2.458549 0.79265898 -0.24839944
2.6272566 0.90007246 -0.24839944
2.7959645 1.0074861 -0.24839944
2.9646723 1.1148998 -0.24839944
3.1333802 1.2223133 -0.24839944
3.302088 1.3297269 -0.24839944
3.4707956 1.4371405 -0.24839944
3.6395035 1.5445541 -0.24839944
3.8082113 1.6519676 -0.24839944
3.9769189 1.7593812 -0.24839944
4.145627 1.8667949 -0.24839944
4.3143344 1.9742084 -0.24839944
4.4830427 2.0816221 -0.24839944
4.6517501 2.1890357 -0.24839944
4.8204579 2.2964492 -0.24839944
4.9891658 2.403863 -0.24839944
5.1578736 2.5112765 -0.24839944
5.3265815 2.61869 -0.24839944
1.4463022 0.14817742 -0.24839944
1.4463022 0.14817742 -0.048399426
1.4463022 0.14817742 0.15160057
1.4463022 0.14817742 0.35160059
1.4463022 0.14817742 0.55160058
1.4463022 0.14817742 0.75160056
1.4463022 0.14817742 0.95160061
1.4463022 0.14817742 1.1516006
1.4463022 0.14817742 1.3516006
1.4463022 0.14817742 1.5516006
1.4463022 0.14817742 1.7516006
1.4463022 0.14817742 1.9516007
1.4463022 0.14817742 2.1516006
1.4463022 0.14817742 2.3516004
1.4463022 0.14817742 2.5516005
1.4463022 0.14817742 2.7516005
1.4463022 0.14817742 2.9516006
1.4463022 0.14817742 3.1516006
1.4463022 0.14817742 3.3516004
1.4463022 0.14817742 3.5516005
1.4463022 0.14817742 3.7516005
1.4463022 0.14817742 3.9516003
1.4463022 0.14817742 4.1516008
1.4463022 0.14817742 4.3516006
1.4463022 0.14817742 4.5516009
1.4463022 0.14817742 4.7516007
1.4463022 0.14817742 4.9516006
1.4463022 0.14817742 5.1516008
1.4463022 0.14817742 5.3516006
1.4463022 0.14817742 5.5516009
1.4463022 0.14817742 5.7516007
1.4463022 0.14817742 5.9516006
1.4463022 0.14817742 6.1516008
1.4463022 0.14817742 6.3516006
1.4463022 0.14817742 6.5516009
1.4463022 0.14817742 6.7516007
1.4463022 0.14817742 6.9516006
1.4463022 0.14817742 7.1516008
1.4463022 0.14817742 7.3516006
1.4463022 0.14817742 7.5516009
1.4463022 0.14817742 7.7516007
1.4463022 0.14817742 7.9516006
1.4463022 0.14817742 8.1515999
1.4463022 0.14817742 8.3516006
1.4463022 0.14817742 8.5516005
0.43405533 -0.49630418 -0.24839944
0.60276312 -0.38889059 -0.24839944
0.77147096 -0.28147697 -0.24839944
0.94017875 -0.17406338 -0.24839944
1.1088865 -0.066649795 -0.24839944
1.2775943 0.040763792 -0.24839944
1.4463022 0.14817742 -0.24839944
1.6150099 0.25559098 -0.24839944
1.7837178 0.3630046 -0.24839944
1.9524255 0.47041813 -0.24839944
2.1211333 0.57783175 -0.24839944
2.2898412 0.68524539 -0.24839944
2.458549 0.79265898 -0.24839944
2.6272566 0.90007246 -0.24839944
2.7959645 1.0074861 -0.24839944
2.9646723 1.1148998 -0.24839944
3.1333802 1.2223133 -0.24839944
3.302088 1.3297269 -0.24839944
3.4707956 1.4371405 -0.24839944
3.6395035 1.5445541 -0.24839944
3.8082113 1.6519676 -0.24839944
3.9769189 1.7593812 -0.24839944
4.145627 1.8667949 -0.24839944
4.3143344 1.9742084 -0.24839944
4.4830427 2.0816221 -0.24839944
4.6517501 2.1890357 -0.24839944
4.8204579 2.2964492 -0.24839944
4.9891658 2.403863 -0.24839944
5.1578736 2.5112765 -0.24839944
5.3265815 2.61869 -0.24839944
1.6150099 0.25559098 -0.24839944
1.6150099 0.25559098 -0.048399426
1.6150099 0.25559098 0.15160057
1.6150099 0.25559098 0.35160059
1.6150099 0.25559098 0.55160058
1.6150099 0.25559098 0.75160056
1.6150099 0.25559098 0.95160061
1.6150099 0.25559098 1.1516006
1.6150099 0.25559098 1.3516006
1.6150099 0.25559098 1.5516006
1.6150099 0.25559098 1.7516006
1.6150099 0.25559098 1.9516007
1.6150099 0.25559098 2.1516006
1.6150099 0.25559098 2.3516004
1.6150099 0.25559098 2.5516005
1.6150099 0.25559098 2.7516005
1.6150099 0.25559098 2.9516006
1.6150099 0.25559098 3.1516006
1.6150099 0.25559098 3.3516004
1.6150099 0.25559098 3.5516005
1.6150099 0.25559098 3.7516005
1.6150099 0.25559098 3.9516003
1.6150099 0.25559098 4.1516008
1.6150099 0.25559098 4.3516006
1.6150099 0.25559098 4.5516009
1.6150099 0.25559098 4.7516007
1.6150099 0.25559098 4.9516006
1.6150099 0.25559098 5.1516008
1.6150099 0.25559098 5.3516006
1.6150099 0.25559098 5.5516009
1.6150099 0.25559098 5.7516007
1.6150099 0.25559098 5.9516006
1.6150099 0.25559098 6.1516008
1.6150099 0.25559098 6.3516006
1.6150099 0.25559098 6.5516009
1.6150099 0.25559098 6.7516007
1.6150099 0.25559098 6.9516006
1.6150099 0.25559098 7.1516008
1.6150099 0.25559098 7.3516006
1.6150099 0.25559098 7.5516009
1.6150099 0.25559098 7.7516007
1.6150099 0.25559098 7.9516006
1.6150099 0.25559098 8.1515999
1.6150099 0.25559098 8.3516006
1.6150099 0.25559098 8.5516005
0.43405533 -0.49630418 -0.24839944
0.60276312 -0.38889059 -0.24839944
0.77147096 -0.28147697 -0.24839944
0.94017875 -0.17406338 -0.24839944
1.1088865 -0.066649795 -0.24839944
1.2775943 0.040763792 -0.24839944
1.4463022 0.14817742 -0.24839944
1.6150099 0.25559098 -0.24839944
1.7837178 0.3630046 -0.24839944
1.9524255 0.47041813 -0.24839944
2.1211333 0.57783175 -0.24839944
2.2898412 0.68524539 -0.24839944
2.458549 0.79265898 -0.24839944
2.6272566 0.90007246 -0.24839944
2.7959645 1.0074861 -0.24839944
2.9646723 1.1148998 -0.24839944
3.1333802 1.2223133 -0.24839944
3.302088 1.3297269 -0.24839944
3.4707956 1.4371405 -0.24839944
3.6395035 1.5445541 -0.24839944
3.8082113 1.6519676 -0.24839944
3.9769189 1.7593812 -0.24839944
4.145627 1.8667949 -0.24839944
4.3143344 1.9742084 -0.24839944
4.4830427 2.0816221 -0.24839944
4.6517501 2.1890357 -0.24839944
4.8204579 2.2964492 -0.24839944
4.9891658 2.403863 -0.24839944
5.1578736 2.5112765 -0.24839944
5.3265815 2.61869 -0.24839944
1.7837178 0.3630046 -0.24839944
1.7837178 0.3630046 -0.048399426
1.7837178 0.3630046 0.15160057
1.7837178 0.3630046 0.35160059
1.7837178 0.3630046 0.55160058
1.7837178 0.3630046 0.75160056
1.7837178 0.3630046 0.95160061
1.7837178 0.3630046 1.1516006
1.7837178 0.3630046 1.3516006
1.7837178 0.3630046 1.5516006
1.7837178 0.3630046 1.7516006
1.7837178 0.3630046 1.9516007
1.7837178 0.3630046 2.1516006
1.7837178 0.3630046 2.3516004
1.7837178 0.3630046 2.5516005
1.7837178 0.3630046 2.7516005
1.7837178 0.3630046 2.9516006
1.7837178 0.3630046 3.1516006
1.7837178 0.3630046 3.3516004
1.7837178 0.3630046 3.5516005
1.7837178 0.3630046 3.7516005
1.7837178 0.3630046 3.9516003
1.7837178 0.3630046 4.1516008
1.7837178 0.3630046 4.3516006
1.7837178 0.3630046 4.5516009
1.7837178 0.3630046 4.7516007
1.7837178 0.3630046 4.9516006
1.7837178 0.3630046 5.1516008
1.7837178 0.3630046 5.3516006
1.7837178 0.3630046 5.5516009
1.7837178 0.3630046 5.7516007
1.7837178 0.3630046 5.9516006
1.7837178 0.3630046 6.1516008
1.7837178 0.3630046 6.3516006
1.7837178 0.3630046 6.5516009
1.7837178 0.3630046 6.7516007
1.7837178 0.3630046 6.9516006
1.7837178 0.3630046 7.1516008
1.7837178 0.3630046 7.3516006
1.7837178 0.3630046 7.5516009
1.7837178 0.3630046 7.7516007
1.7837178 0.3630046 7.9516006
1.7837178 0.3630046 8.1515999
1.7837178 0.3630046 8.3516006
1.7837178 0.3630046 8.5516005
0.43405533 -0.49630418 -0.24839944
0.60276312 -0.38889059 -0.24839944
0.77147096 -0.28147697 -0.24839944
0.94017875 -0.17406338 -0.24839944
1.1088865 -0.066649795 -0.24839944
1.2775943 0.040763792 -0.24839944
1.4463022 0.14817742 -0.24839944
1.6150099 0.25559098 -0.24839944
1.7837178 0.3630046 -0.24839944
1.9524255 0.47041813 -0.24839944
2.1211333 0.57783175 -0.24839944
2.2898412 0.68524539 -0.24839944
2.458549 0.79265898 -0.24839944
2.6272566 0.90007246 -0.24839944
2.7959645 1.0074861 -0.24839944
2.9646723 1.1148998 -0.24839944
3.1333802 1.2223133 -0.24839944
3.302088 1.3297269 -0.24839944
3.4707956 1.4371405 -0.24839944
3.6395035 1.5445541 -0.24839944
3.8082113 1.6519676 -0.24839944
3.9769189 1.7593812 -0.24839944
4.145627 1.8667949 -0.24839944
4.3143344 1.9742084 -0.24839944
4.4830427 2.0816221 -0.24839944
4.6517501 2.1890357 -0.24839944
4.8204579 2.2964492 -0.24839944
4.9891658 2.403863 -0.24839944
5.1578736 2.5112765 -0.24839944
5.3265815 2.61869 -0.24839944
1.9524255 0.47041813 -0.24839944
1.9524255 0.47041813 -0.048399426
1.9524255 0.47041813 0.15160057
1.9524255 0.47041813 0.35160059
1.9524255 0.47041813 0.55160058
1.9524255 0.47041813 0.75160056
1.9524255 0.47041813 0.95160061
1.9524255 0.47041813 1.1516006
1.9524255 0.47041813 1.3516006
1.9524255 0.47041813 1.5516006
1.9524255 0.47041813 1.7516006
1.9524255 0.47041813 1.9516007
1.9524255 0.47041813 2.1516006
1.9524255 0.47041813 2.3516004
1.9524255 0.47041813 2.5516005
1.9524255 0.47041813 2.7516005
1.9524255 0.47041813 2.9516006
1.9524255 0.47041813 3.1516006
1.9524255 0.47041813 3.3516004
1.9524255 0.47041813 3.5516005
1.9524255 0.47041813 3.7516005
1.9524255 0.47041813 3.9516003
1.9524255 0.47041813 4.1516008
1.9524255 0.47041813 4.3516006
1.9524255 0.47041813 4.5516009
1.9524255 0.47041813 4.7516007
1.9524255 0.47041813 4.9516006
1.9524255 0.47041813 5.1516008
1.9524255 0.47041813 5.3516006
1.9524255 0.47041813 5.5516009
1.9524255 0.47041813 5.7516007
1.9524255 0.47041813 5.9516006
1.9524255 0.47041813 6.1516008
1.9524255 0.47041813 6.3516006
1.9524255 0.47041813 6.5516009
1.9524255 0.47041813 6.7516007
1.9524255 0.47041813 6.9516006
1.9524255 0.47041813 7.1516008
1.9524255 0.47041813 7.3516006
1.9524255 0.47041813 7.5516009
1.9524255 0.47041813 7.7516007
1.9524255 0.47041813 7.9516006
1.9524255 0.47041813 8.1515999
1.9524255 0.47041813 8.3516006
1.9524255 0.47041813 8.5516005
0.43405533 -0.49630418 -0.24839944
0.60276312 -0.38889059 -0.24839944
0.77147096 -0.28147697 -0.24839944
0.94017875 -0.17406338 -0.24839944
1.1088865 -0.066649795 -0.24839944
1.2775943 0.040763792 -0.24839944
1.4463022 0.14817742 -0.24839944
1.6150099 0.25559098 -0.24839944
1.7837178 0.3630046 -0.24839944
1.9524255 0.47041813 -0.24839944
2.1211333 0.57783175 -0.24839944
2.2898412 0.68524539 -0.24839944
2.458549 0.79265898 -0.24839944
2.6272566 0.90007246 -0.24839944
2.7959645 1.0074861 -0.24839944
2.9646723 1.1148998 -0.24839944
3.1333802 1.2223133 -0.24839944
3.302088 1.3297269 -0.24839944
3.4707956 1.4371405 -0.24839944
3.6395035 1.5445541 -0.24839944
