# .PCD v0.7 - Point Cloud Data file format
VERSION 0.7
FIELDS x y z
SIZE 4 4 4
TYPE F F F
COUNT 1 1 1
WIDTH 1500
HEIGHT 1
VIEWPOINT 0 0 0 1 0 0 0
POINTS 1500
DATA ascii
-0.95494759 1.9802474 0.23546313
-1.1099608 2.1066234 0.23546313
-1.2649739 2.2329996 0.23546313
-1.4199871 2.3593755 0.23546313
-1.5750003 2.4857516 0.23546313
-1.7300135 2.6121278 0.23546313
-1.8850267 2.7385039 0.23546313
-2.0400398 2.8648798 0.23546313
-2.1950531 2.991256 0.23546313
-2.3500662 3.1176322 0.23546313
-2.5050793 3.2440081 0.23546313
-2.6600926 3.3703842 0.23546313
-2.8151057 3.4967601 0.23546313
-2.970119 3.6231365 0.23546313
-3.1251321 3.7495124 0.23546313
-3.2801452 3.8758883 0.23546313
-3.4351585 4.0022645 0.23546313
-3.5901716 4.1286407 0.23546313
-3.7451851 4.2550168 0.23546313
0.75019741 0.59011048 0.23546313
0.75019741 0.59011048 0.43546313
0.75019741 0.59011048 0.63546312
0.75019741 0.59011048 0.83546317
0.75019741 0.59011048 1.0354631
0.75019741 0.59011048 1.2354631
0.75019741 0.59011048 1.4354632
0.75019741 0.59011048 1.6354631
0.75019741 0.59011048 1.8354632
0.75019741 0.59011048 2.0354631
0.75019741 0.59011048 2.2354631
0.75019741 0.59011048 2.4354632
0.75019741 0.59011048 2.6354632
0.75019741 0.59011048 2.835463
0.75019741 0.59011048 3.0354631
0.75019741 0.59011048 3.2354631
0.75019741 0.59011048 3.4354632
0.75019741 0.59011048 3.6354632
0.75019741 0.59011048 3.835463
0.75019741 0.59011048 4.0354629
0.75019741 0.59011048 4.2354631
0.75019741 0.59011048 4.435463
0.75019741 0.59011048 4.6354632
0.75019741 0.59011048 4.835463
0.75019741 0.59011048 5.0354633
0.75019741 0.59011048 5.2354631
0.75019741 0.59011048 5.435463
0.75019741 0.59011048 5.6354632
0.75019741 0.59011048 5.835463
0.75019741 0.59011048 6.0354633
0.75019741 0.59011048 6.2354631
0.75019741 0.59011048 6.435463
0.75019741 0.59011048 6.6354632
0.75019741 0.59011048 6.835463
0.75019741 0.59011048 7.0354633
0.75019741 0.59011048 7.2354631
0.75019741 0.59011048 7.435463
0.75019741 0.59011048 7.6354632
0.75019741 0.59011048 7.835463
0.75019741 0.59011048 8.0354633
0.75019741 0.59011048 8.2354631
0.75019741 0.59011048 8.435463
0.75019741 0.59011048 8.6354628
0.75019741 0.59011048 8.8354635
0.75019741 0.59011048 9.0354633
-0.0080590686 -0.33996862 0.23546313
0.11831702 -0.18495545 0.23546313
0.24469309 -0.029942257 0.23546313
0.37106919 0.12507094 0.23546313
0.49744526 0.2800841 0.23546313
0.62382132 0.43509728 0.23546313
0.75019741 0.59011048 0.23546313
0.87657344 0.74512362 0.23546313
1.0029496 0.90013683 0.23546313
1.1293256 1.05515 0.23546313
1.2557017 1.2101632 0.23546313
1.3820778 1.3651764 0.23546313
1.508454 1.5201896 0.23546313
1.6348299 1.6752027 0.23546313
1.761206 1.8302159 0.23546313
0.87657344 0.74512362 0.23546313
0.7215603 0.87149972 0.23546313
0.5665471 0.99787581 0.23546313
0.41153389 1.1242518 0.23546313
0.25652072 1.250628 0.23546313
0.10150755 1.377004 0.23546313
-0.05350567 1.5033802 0.23546313
-0.2085188 1.6297562 0.23546313
-0.36353201 1.7561322 0.23546313
-0.51854515 1.8825083 0.23546313
-0.67355835 2.0088844 0.23546313
-0.82857156 2.1352606 0.23546313
-0.98358482 2.2616367 0.23546313
-1.1385978 2.3880126 0.23546313
-1.293611 2.5143888 0.23546313
-1.4486243 2.6407647 0.23546313
-1.6036375 2.7671409 0.23546313
-1.7586507 2.893517 0.23546313
-1.9136637 3.0198929 0.23546313
-2.0686769 3.1462691 0.23546313
-2.2236903 3.2726452 0.23546313
-2.3787031 3.3990211 0.23546313
-2.5337167 3.5253973 0.23546313
-2.6887298 3.6517735 0.23546313
-2.8437431 3.7781496 0.23546313
-2.9987562 3.9045255 0.23546313
-3.1537693 4.0309014 0.23546313
-3.3087826 4.1572776 0.23546313
-3.4637957 4.2836537 0.23546313
-3.618809 4.4100299 0.23546313
0.87657344 0.74512362 0.23546313
0.87657344 0.74512362 0.43546313
0.87657344 0.74512362 0.63546312
0.87657344 0.74512362 0.83546317
0.87657344 0.74512362 1.0354631
0.87657344 0.74512362 1.2354631
0.87657344 0.74512362 1.4354632
0.87657344 0.74512362 1.6354631
0.87657344 0.74512362 1.8354632
0.87657344 0.74512362 2.0354631
0.87657344 0.74512362 2.2354631
0.87657344 0.74512362 2.4354632
0.87657344 0.74512362 2.6354632
0.87657344 0.74512362 2.835463
0.87657344 0.74512362 3.0354631
0.87657344 0.74512362 3.2354631
0.87657344 0.74512362 3.4354632
0.87657344 0.74512362 3.6354632
0.87657344 0.74512362 3.835463
0.87657344 0.74512362 4.0354629
0.87657344 0.74512362 4.2354631
0.87657344 0.74512362 4.435463
0.87657344 0.74512362 4.6354632
0.87657344 0.74512362 4.835463
0.87657344 0.74512362 5.0354633
0.87657344 0.74512362 5.2354631
0.87657344 0.74512362 5.435463
0.87657344 0.74512362 5.6354632
0.87657344 0.74512362 5.835463
0.87657344 0.74512362 6.0354633
0.87657344 0.74512362 6.2354631
0.87657344 0.74512362 6.435463
0.87657344 0.74512362 6.6354632
0.87657344 0.74512362 6.835463
0.87657344 0.74512362 7.0354633
0.87657344 0.74512362 7.2354631
0.87657344 0.74512362 7.435463
0.87657344 0.74512362 7.6354632
0.87657344 0.74512362 7.835463
0.87657344 0.74512362 8.0354633
0.87657344 0.74512362 8.2354631
0.87657344 0.74512362 8.435463
0.87657344 0.74512362 8.6354628
0.87657344 0.74512362 8.8354635
0.87657344 0.74512362 9.0354633
-0.0080590686 -0.33996862 0.23546313
0.11831702 -0.18495545 0.23546313
0.24469309 -0.029942257 0.23546313
0.37106919 0.12507094 0.23546313
0.49744526 0.2800841 0.23546313
0.62382132 0.43509728 0.23546313
0.75019741 0.59011048 0.23546313
0.87657344 0.74512362 0.23546313
1.0029496 0.90013683 0.23546313
1.1293256 1.05515 0.23546313
1.2557017 1.2101632 0.23546313
1.3820778 1.3651764 0.23546313
1.508454 1.5201896 0.23546313
1.6348299 1.6752027 0.23546313
1.761206 1.8302159 0.23546313
1.0029496 0.90013683 0.23546313
0.84793639 1.026513 0.23546313
0.69292319 1.152889 0.23546313
0.53790998 1.279265 0.23546313
0.38289684 1.4056412 0.23546313
0.22788365 1.5320172 0.23546313
0.072870441 1.6583934 0.23546313
-0.082142688 1.7847694 0.23546313
-0.23715591 1.9111454 0.23546313
-0.39216903 2.0375216 0.23546313
-0.54718226 2.1638978 0.23546313
-0.70219547 2.2902737 0.23546313
-0.85720867 2.4166498 0.23546313
-1.0122217 2.5430257 0.23546313
-1.1672349 2.6694019 0.23546313
-1.3222482 2.795778 0.23546313
-1.4772614 2.9221542 0.23546313
-1.6322746 3.0485303 0.23546313
-1.7872876 3.1749063 0.23546313
-1.9423009 3.3012824 0.23546313
-2.0973141 3.4276583 0.23546313
-2.2523272 3.5540345 0.23546313
-2.4073405 3.6804106 0.23546313
-2.5623536 3.8067865 0.23546313
-2.7173669 3.9331629 0.23546313
-2.87238 4.0595388 0.23546313
-3.0273931 4.185915 0.23546313
-3.1824064 4.3122911 0.23546313
-3.3374195 4.4386668 0.23546313
-3.4924328 4.5650434 0.23546313
1.0029496 0.90013683 0.23546313
1.0029496 0.90013683 0.43546313
1.0029496 0.90013683 0.63546312
1.0029496 0.90013683 0.83546317
1.0029496 0.90013683 1.0354631
1.0029496 0.90013683 1.2354631
1.0029496 0.90013683 1.4354632
1.0029496 0.90013683 1.6354631
1.0029496 0.90013683 1.8354632
1.0029496 0.90013683 2.0354631
1.0029496 0.90013683 2.2354631
1.0029496 0.90013683 2.4354632
1.0029496 0.90013683 2.6354632
1.0029496 0.90013683 2.835463
1.0029496 0.90013683 3.0354631
1.0029496 0.90013683 3.2354631
1.0029496 0.90013683 3.4354632
1.0029496 0.90013683 3.6354632
1.0029496 0.90013683 3.835463
1.0029496 0.90013683 4.0354629
1.0029496 0.90013683 4.2354631
1.0029496 0.90013683 4.435463
1.0029496 0.90013683 4.6354632
1.0029496 0.90013683 4.835463
1.0029496 0.90013683 5.0354633
1.0029496 0.90013683 5.2354631
1.0029496 0.90013683 5.435463
1.0029496 0.90013683 5.6354632
1.0029496 0.90013683 5.835463
1.0029496 0.90013683 6.0354633
1.0029496 0.90013683 6.2354631
1.0029496 0.90013683 6.435463
1.0029496 0.90013683 6.6354632
1.0029496 0.90013683 6.835463
1.0029496 0.90013683 7.0354633
1.0029496 0.90013683 7.2354631
1.0029496 0.90013683 7.435463
1.0029496 0.90013683 7.6354632
1.0029496 0.90013683 7.835463
1.0029496 0.90013683 8.0354633
1.0029496 0.90013683 8.2354631
1.0029496 0.90013683 8.435463
1.0029496 0.90013683 8.6354628
1.0029496 0.90013683 8.8354635
1.0029496 0.90013683 9.0354633
-0.0080590686 -0.33996862 0.23546313
0.11831702 -0.18495545 0.23546313
0.24469309 -0.029942257 0.23546313
0.37106919 0.12507094 0.23546313
0.49744526 0.2800841 0.23546313
0.62382132 0.43509728 0.23546313
0.75019741 0.59011048 0.23546313
0.87657344 0.74512362 0.23546313
1.0029496 0.90013683 0.23546313
1.1293256 1.05515 0.23546313
1.2557017 1.2101632 0.23546313
1.3820778 1.3651764 0.23546313
1.508454 1.5201896 0.23546313
1.6348299 1.6752027 0.23546313
1.761206 1.8302159 0.23546313
1.1293256 1.05515 0.23546313
0.97431242 1.1815261 0.23546313
0.81929922 1.3079021 0.23546313
0.66428602 1.4342782 0.23546313
0.50927287 1.5606543 0.23546313
0.3542597 1.6870303 0.23546313
0.19924647 1.8134065 0.23546313
0.044233344 1.9397825 0.23546313
-0.11077987 2.0661585 0.23546313
-0.265793 2.1925347 0.23546313
-0.42080623 2.3189108 0.23546313
-0.57581943 2.445287 0.23546313
-0.73083264 2.5716629 0.23546313
-0.88584572 2.6980391 0.23546313
-1.0408589 2.824415 0.23546313
-1.1958722 2.9507911 0.23546313
-1.3508854 3.0771673 0.23546313
-1.5058986 3.2035434 0.23546313
-1.6609116 3.3299193 0.23546313
-1.8159249 3.4562955 0.23546313
-1.9709381 3.5826716 0.23546313
-2.1259511 3.7090476 0.23546313
-2.2809644 3.8354237 0.23546313
-2.4359775 3.9617996 0.23546313
-2.590991 4.0881758 0.23546313
-2.7460039 4.2145519 0.23546313
-2.901017 4.3409281 0.23546313
-3.0560305 4.4673042 0.23546313
-3.2110434 4.5936799 0.23546313
-3.3660569 4.7200565 0.23546313
1.1293256 1.05515 0.23546313
1.1293256 1.05515 0.43546313
1.1293256 1.05515 0.63546312
1.1293256 1.05515 0.83546317
1.1293256 1.05515 1.0354631
1.1293256 1.05515 1.2354631
1.1293256 1.05515 1.4354632
1.1293256 1.05515 1.6354631
1.1293256 1.05515 1.8354632
1.1293256 1.05515 2.0354631
1.1293256 1.05515 2.2354631
1.1293256 1.05515 2.4354632
1.1293256 1.05515 2.6354632
1.1293256 1.05515 2.835463
1.1293256 1.05515 3.0354631
1.1293256 1.05515 3.2354631
1.1293256 1.05515 3.4354632
1.1293256 1.05515 3.6354632
1.1293256 1.05515 3.835463
1.1293256 1.05515 4.0354629
1.1293256 1.05515 4.2354631
1.1293256 1.05515 4.435463
1.1293256 1.05515 4.6354632
1.1293256 1.05515 4.835463
1.1293256 1.05515 5.0354633
1.1293256 1.05515 5.2354631
1.1293256 1.05515 5.435463
1.1293256 1.05515 5.6354632
1.1293256 1.05515 5.835463
1.1293256 1.05515 6.0354633
1.1293256 1.05515 6.2354631
1.1293256 1.05515 6.435463
1.1293256 1.05515 6.6354632
1.1293256 1.05515 6.835463
1.1293256 1.05515 7.0354633
1.1293256 1.05515 7.2354631
1.1293256 1.05515 7.435463
1.1293256 1.05515 7.6354632
1.1293256 1.05515 7.835463
1.1293256 1.05515 8.0354633
1.1293256 1.05515 8.2354631
1.1293256 1.05515 8.435463
1.1293256 1.05515 8.6354628
1.1293256 1.05515 8.8354635
1.1293256 1.05515 9.0354633
-0.0080590686 -0.33996862 0.23546313
0.11831702 -0.18495545 0.23546313
0.24469309 -0.029942257 0.23546313
0.37106919 0.12507094 0.23546313
0.49744526 0.2800841 0.23546313
0.62382132 0.43509728 0.23546313
0.75019741 0.59011048 0.23546313
0.87657344 0.74512362 0.23546313
1.0029496 0.90013683 0.23546313
1.1293256 1.05515 0.23546313
1.2557017 1.2101632 0.23546313
1.3820778 1.3651764 0.23546313
1.508454 1.5201896 0.23546313
1.6348299 1.6752027 0.23546313
1.761206 1.8302159 0.23546313
1.2557017 1.2101632 0.23546313
1.1006886 1.3365393 0.23546313
0.94567531 1.4629154 0.23546313
0.79066217 1.5892915 0.23546313
0.63564897 1.7156675 0.23546313
0.48063579 1.8420436 0.23546313
0.32562259 1.9684197 0.23546313
0.17060944 2.0947957 0.23546313
0.015596231 2.2211719 0.23546313
-0.1394169 2.3475478 0.23546313
-0.29443011 2.4739239 0.23546313
-0.44944334 2.6003001 0.23546313
-0.60445654 2.7266762 0.23546313
-0.75946957 2.8530521 0.23546313
-0.91448283 2.9794283 0.23546313
-1.069496 3.1058044 0.23546313
-1.2245092 3.2321806 0.23546313
-1.3795224 3.3585565 0.23546313
-1.5345355 3.4849327 0.23546313
-1.6895487 3.6113086 0.23546313
-1.8445619 3.7376847 0.23546313
-1.999575 3.8640606 0.23546313
-2.1545885 3.990437 0.23546313
-2.3096013 4.1168127 0.23546313
-2.4646149 4.2431893 0.23546313
-2.619628 4.369565 0.23546313
-2.7746408 4.4959412 0.23546313
-2.9296544 4.6223173 0.23546313
-3.0846674 4.7486935 0.23546313
-3.2396808 4.8750696 0.23546313
1.2557017 1.2101632 0.23546313
1.2557017 1.2101632 0.43546313
1.2557017 1.2101632 0.63546312
1.2557017 1.2101632 0.83546317
1.2557017 1.2101632 1.0354631
1.2557017 1.2101632 1.2354631
1.2557017 1.2101632 1.4354632
1.2557017 1.2101632 1.6354631
1.2557017 1.2101632 1.8354632
1.2557017 1.2101632 2.0354631
1.2557017 1.2101632 2.2354631
1.2557017 1.2101632 2.4354632
1.2557017 1.2101632 2.6354632
1.2557017 1.2101632 2.835463
1.2557017 1.2101632 3.0354631
1.2557017 1.2101632 3.2354631
1.2557017 1.2101632 3.4354632
1.2557017 1.2101632 3.6354632
1.2557017 1.2101632 3.835463
1.2557017 1.2101632 4.0354629
1.2557017 1.2101632 4.2354631
1.2557017 1.2101632 4.435463
1.2557017 1.2101632 4.6354632
1.2557017 1.2101632 4.835463
1.2557017 1.2101632 5.0354633
1.2557017 1.2101632 5.2354631
1.2557017 1.2101632 5.435463
1.2557017 1.2101632 5.6354632
1.2557017 1.2101632 5.835463
1.2557017 1.2101632 6.0354633
1.2557017 1.2101632 6.2354631
1.2557017 1.2101632 6.435463
1.2557017 1.2101632 6.6354632
1.2557017 1.2101632 6.835463
1.2557017 1.2101632 7.0354633
1.2557017 1.2101632 7.2354631
1.2557017 1.2101632 7.435463
1.2557017 1.2101632 7.6354632
1.2557017 1.2101632 7.835463
1.2557017 1.2101632 8.0354633
1.2557017 1.2101632 8.2354631
1.2557017 1.2101632 8.435463
1.2557017 1.2101632 8.6354628
1.2557017 1.2101632 8.8354635
1.2557017 1.2101632 9.0354633
-0.0080590686 -0.33996862 0.23546313
0.11831702 -0.18495545 0.23546313
0.24469309 -0.029942257 0.23546313
0.37106919 0.12507094 0.23546313
0.49744526 0.2800841 0.23546313
0.62382132 0.43509728 0.23546313
0.75019741 0.59011048 0.23546313
0.87657344 0.74512362 0.23546313
1.0029496 0.90013683 0.23546313
1.1293256 1.05515 0.23546313
1.2557017 1.2101632 0.23546313
1.3820778 1.3651764 0.23546313
1.508454 1.5201896 0.23546313
1.6348299 1.6752027 0.23546313
1.761206 1.8302159 0.23546313
1.3820778 1.3651764 0.23546313
1.2270646 1.4915525 0.23546313
1.0720514 1.6179286 0.23546313
0.91703826 1.7443047 0.23546313
0.76202506 1.8706807 0.23546313
0.60701191 1.9970568 0.23546313
0.45199868 2.1234329 0.23546313
0.29698557 2.249809 0.23546313
0.14197233 2.3761852 0.23546313
-0.013040788 2.5025611 0.23546313
-0.16805401 2.6289372 0.23546313
-0.32306722 2.7553134 0.23546313
-0.47808045 2.8816893 0.23546313
-0.63309348 3.0080655 0.23546313
-0.78810668 3.1344414 0.23546313
-0.94311994 3.2608175 0.23546313
-1.0981331 3.3871937 0.23546313
-1.2531464 3.5135698 0.23546313
-1.4081594 3.6399457 0.23546313
-1.5631726 3.7663219 0.23546313
-1.7181858 3.892698 0.23546313
-1.8731989 4.019074 0.23546313
-2.0282123 4.1454501 0.23546313
-2.1832254 4.2718263 0.23546313
-2.3382387 4.3982024 0.23546313
-2.4932518 4.5245786 0.23546313
-2.6482649 4.6509542 0.23546313
-2.8032782 4.7773304 0.23546313
-2.9582913 4.9037066 0.23546313
-3.1133046 5.0300827 0.23546313
1.3820778 1.3651764 0.23546313
1.3820778 1.3651764 0.43546313
1.3820778 1.3651764 0.63546312
1.3820778 1.3651764 0.83546317
1.3820778 1.3651764 1.0354631
1.3820778 1.3651764 1.2354631
1.3820778 1.3651764 1.4354632
1.3820778 1.3651764 1.6354631
1.3820778 1.3651764 1.8354632
1.3820778 1.3651764 2.0354631
1.3820778 1.3651764 2.2354631
1.3820778 1.3651764 2.4354632
1.3820778 1.3651764 2.6354632
1.3820778 1.3651764 2.835463
1.3820778 1.3651764 3.0354631
1.3820778 1.3651764 3.2354631
1.3820778 1.3651764 3.4354632
1.3820778 1.3651764 3.6354632
1.3820778 1.3651764 3.835463
1.3820778 1.3651764 4.0354629
1.3820778 1.3651764 4.2354631
1.3820778 1.3651764 4.435463
1.3820778 1.3651764 4.6354632
1.3820778 1.3651764 4.835463
1.3820778 1.3651764 5.0354633
1.3820778 1.3651764 5.2354631
1.3820778 1.3651764 5.435463
1.3820778 1.3651764 5.6354632
1.3820778 1.3651764 5.835463
1.3820778 1.3651764 6.0354633
1.3820778 1.3651764 6.2354631
1.3820778 1.3651764 6.435463
1.3820778 1.3651764 6.6354632
1.3820778 1.3651764 6.835463
1.3820778 1.3651764 7.0354633
1.3820778 1.3651764 7.2354631
1.3820778 1.3651764 7.435463
1.3820778 1.3651764 7.6354632
1.3820778 1.3651764 7.835463
1.3820778 1.3651764 8.0354633
1.3820778 1.3651764 8.2354631
1.3820778 1.3651764 8.435463
1.3820778 1.3651764 8.6354628
1.3820778 1.3651764 8.8354635
1.3820778 1.3651764 9.0354633
-0.0080590686 -0.33996862 0.23546313
0.11831702 -0.18495545 0.23546313
0.24469309 -0.029942257 0.23546313
0.37106919 0.12507094 0.23546313
0.49744526 0.2800841 0.23546313
0.62382132 0.43509728 0.23546313
0.75019741 0.59011048 0.23546313
0.87657344 0.74512362 0.23546313
1.0029496 0.90013683 0.23546313
1.1293256 1.05515 0.23546313
1.2557017 1.2101632 0.23546313
1.3820778 1.3651764 0.23546313
1.508454 1.5201896 0.23546313
1.6348299 1.6752027 0.23546313
1.761206 1.8302159 0.23546313
1.508454 1.5201896 0.23546313
1.3534408 1.6465657 0.23546313
1.1984276 1.7729418 0.23546313
1.0434144 1.8993179 0.23546313
0.88840121 2.0256939 0.23546313
0.73338801 2.15207 0.23546313
0.5783748 2.2784462 0.23546313
0.42336166 2.4048221 0.23546313
0.26834846 2.5311983 0.23546313
0.11333532 2.6575744 0.23546313
-0.0416779 2.7839503 0.23546313
-0.19669113 2.9103265 0.23546313
-0.35170433 3.0367026 0.23546313
-0.50671738 3.1630785 0.23546313
-0.66173059 3.2894547 0.23546313
-0.81674379 3.4158309 0.23546313
-0.97175705 3.542207 0.23546313
-1.1267703 3.6685829 0.23546313
-1.2817833 3.7949591 0.23546313
-1.4367965 3.921335 0.23546313
-1.5918097 4.0477114 0.23546313
-1.7468227 4.174087 0.23546313
-1.9018362 4.3004632 0.23546313
-2.0568492 4.4268394 0.23546313
-2.2118626 4.5532155 0.23546313
-2.3668756 4.6795917 0.23546313
-2.5218887 4.8059673 0.23546313
-2.6769021 4.932344 0.23546313
-2.8319151 5.0587196 0.23546313
-2.9869285 5.1850963 0.23546313
1.508454 1.5201896 0.23546313
1.508454 1.5201896 0.43546313
1.508454 1.5201896 0.63546312
1.508454 1.5201896 0.83546317
1.508454 1.5201896 1.0354631
1.508454 1.5201896 1.2354631
1.508454 1.5201896 1.4354632
1.508454 1.5201896 1.6354631
1.508454 1.5201896 1.8354632
1.508454 1.5201896 2.0354631
1.508454 1.5201896 2.2354631
1.508454 1.5201896 2.4354632
1.508454 1.5201896 2.6354632
1.508454 1.5201896 2.835463
1.508454 1.5201896 3.0354631
1.508454 1.5201896 3.2354631
1.508454 1.5201896 3.4354632
1.508454 1.5201896 3.6354632
1.508454 1.5201896 3.835463
1.508454 1.5201896 4.0354629
1.508454 1.5201896 4.2354631
1.508454 1.5201896 4.435463
1.508454 1.5201896 4.6354632
1.508454 1.5201896 4.835463
1.508454 1.5201896 5.0354633
1.508454 1.5201896 5.2354631
1.508454 1.5201896 5.435463
1.508454 1.5201896 5.6354632
1.508454 1.5201896 5.835463
1.508454 1.5201896 6.0354633
1.508454 1.5201896 6.2354631
1.508454 1.5201896 6.435463
1.508454 1.5201896 6.6354632
1.508454 1.5201896 6.835463
1.508454 1.5201896 7.0354633
1.508454 1.5201896 7.2354631
1.508454 1.5201896 7.435463
1.508454 1.5201896 7.6354632
1.508454 1.5201896 7.835463
1.508454 1.5201896 8.0354633
1.508454 1.5201896 8.2354631
1.508454 1.5201896 8.435463
1.508454 1.5201896 8.6354628
1.508454 1.5201896 8.8354635
1.508454 1.5201896 9.0354633
-0.0080590686 -0.33996862 0.23546313
0.11831702 -0.18495545 0.23546313
0.24469309 -0.029942257 0.23546313
0.37106919 0.12507094 0.23546313
0.49744526 0.2800841 0.23546313
0.62382132 0.43509728 0.23546313
0.75019741 0.59011048 0.23546313
0.87657344 0.74512362 0.23546313
1.0029496 0.90013683 0.23546313
1.1293256 1.05515 0.23546313
1.2557017 1.2101632 0.23546313
1.3820778 1.3651764 0.23546313
1.508454 1.5201896 0.23546313
1.6348299 1.6752027 0.23546313
1.761206 1.8302159 0.23546313
1.6348299 1.6752027 0.23546313
1.4798167 1.8015788 0.23546313
1.3248035 1.9279548 0.23546313
1.1697903 2.0543308 0.23546313
1.0147772 2.180707 0.23546313
0.85976398 2.3070831 0.23546313
0.70475078 2.4334593 0.23546313
0.54973763 2.5598352 0.23546313
0.3947244 2.6862113 0.23546313
0.23971128 2.8125873 0.23546313
0.084698059 2.9389634 0.23546313
-0.07031516 3.0653396 0.23546313
-0.22532839 3.1917157 0.23546313
-0.38034141 3.3180916 0.23546313
-0.53535461 3.4444678 0.23546313
-0.69036788 3.5708439 0.23546313
-0.84538108 3.6972198 0.23546313
-1.0003943 3.823596 0.23546313
-1.1554073 3.9499719 0.23546313
-1.3104205 4.0763483 0.23546313
-1.4654337 4.2027245 0.23546313
-1.6204468 4.3291001 0.23546313
-1.7754602 4.4554763 0.23546313
-1.9304732 4.5818524 0.23546313
-2.0854867 4.7082286 0.23546313
-2.2404997 4.8346047 0.23546313
-2.3955128 4.9609804 0.23546313
-2.5505261 5.087357 0.23546313
-2.7055392 5.2137327 0.23546313
-2.8605525 5.3401089 0.23546313
1.6348299 1.6752027 0.23546313
1.6348299 1.6752027 0.43546313
1.6348299 1.6752027 0.63546312
1.6348299 1.6752027 0.83546317
1.6348299 1.6752027 1.0354631
1.6348299 1.6752027 1.2354631
1.6348299 1.6752027 1.4354632
1.6348299 1.6752027 1.6354631
1.6348299 1.6752027 1.8354632
1.6348299 1.6752027 2.0354631
1.6348299 1.6752027 2.2354631
1.6348299 1.6752027 2.4354632
1.6348299 1.6752027 2.6354632
1.6348299 1.6752027 2.835463
1.6348299 1.6752027 3.0354631
1.6348299 1.6752027 3.2354631
1.6348299 1.6752027 3.4354632
1.6348299 1.6752027 3.6354632
1.6348299 1.6752027 3.835463
1.6348299 1.6752027 4.0354629
1.6348299 1.6752027 4.2354631
1.6348299 1.6752027 4.435463
1.6348299 1.6752027 4.6354632
1.6348299 1.6752027 4.835463
1.6348299 1.6752027 5.0354633
1.6348299 1.6752027 5.2354631
1.6348299 1.6752027 5.435463
1.6348299 1.6752027 5.6354632
1.6348299 1.6752027 5.835463
1.6348299 1.6752027 6.0354633
1.6348299 1.6752027 6.2354631
1.6348299 1.6752027 6.435463
1.6348299 1.6752027 6.6354632
1.6348299 1.6752027 6.835463
1.6348299 1.6752027 7.0354633
1.6348299 1.6752027 7.2354631
1.6348299 1.6752027 7.435463
1.6348299 1.6752027 7.6354632
1.6348299 1.6752027 7.835463
1.6348299 1.6752027 8.0354633
1.6348299 1.6752027 8.2354631
1.6348299 1.6752027 8.435463
1.6348299 1.6752027 8.6354628
1.6348299 1.6752027 8.8354635
1.6348299 1.6752027 9.0354633
-0.0080590686 -0.33996862 0.23546313
0.11831702 -0.18495545 0.23546313
0.24469309 -0.029942257 0.23546313
0.37106919 0.12507094 0.23546313
0.49744526 0.2800841 0.23546313
0.62382132 0.43509728 0.23546313
0.75019741 0.59011048 0.23546313
0.87657344 0.74512362 0.23546313
1.0029496 0.90013683 0.23546313
1.1293256 1.05515 0.23546313
1.2557017 1.2101632 0.23546313
1.3820778 1.3651764 0.23546313
1.508454 1.5201896 0.23546313
1.6348299 1.6752027 0.23546313
1.761206 1.8302159 0.23546313
1.761206 1.8302159 0.23546313
1.6061928 1.956592 0.23546313
1.4511796 2.082968 0.23546313
1.2961664 2.2093441 0.23546313
1.1411532 2.3357203 0.23546313
0.98614007 2.4620962 0.23546313
0.83112687 2.5884724 0.23546313
0.67611372 2.7148485 0.23546313
0.52110052 2.8412244 0.23546313
0.36608738 2.9676006 0.23546313
0.21107417 3.0939767 0.23546313
0.056060947 3.2203529 0.23546313
-0.098952271 3.3467288 0.23546313
-0.25396532 3.473105 0.23546313
-0.40897852 3.5994809 0.23546313
-0.56399173 3.725857 0.23546313
-0.71900499 3.8522332 0.23546313
-0.87401819 3.9786093 0.23546313
-1.0290313 4.1049852 0.23546313
-1.1840445 4.2313614 0.23546313
-1.3390577 4.3577375 0.23546313
-1.4940706 4.4841132 0.23546313
-1.6490841 4.6104898 0.23546313
-1.8040972 4.7368655 0.23546313
-1.9591105 4.8632417 0.23546313
-2.1141236 4.9896178 0.23546313
-2.2691367 5.115994 0.23546313
-2.42415 5.2423701 0.23546313
-2.5791631 5.3687458 0.23546313
-2.7341764 5.4951224 0.23546313
1.761206 1.8302159 0.23546313
1.761206 1.8302159 0.43546313
1.761206 1.8302159 0.63546312
1.761206 1.8302159 0.83546317
1.761206 1.8302159 1.0354631
1.761206 1.8302159 1.2354631
1.761206 1.8302159 1.4354632
1.761206 1.8302159 1.6354631
1.761206 1.8302159 1.8354632
1.761206 1.8302159 2.0354631
1.761206 1.8302159 2.2354631
1.761206 1.8302159 2.4354632
1.761206 1.8302159 2.6354632
1.761206 1.8302159 2.835463
1.761206 1.8302159 3.0354631
1.761206 1.8302159 3.2354631
1.761206 1.8302159 3.4354632
1.761206 1.8302159 3.6354632
1.761206 1.8302159 3.835463
1.761206 1.8302159 4.0354629
1.761206 1.8302159 4.2354631
1.761206 1.8302159 4.435463
1.761206 1.8302159 4.6354632
1.761206 1.8302159 4.835463
1.761206 1.8302159 5.0354633
1.761206 1.8302159 5.2354631
1.761206 1.8302159 5.435463
1.761206 1.8302159 5.6354632
1.761206 1.8302159 5.835463
1.761206 1.8302159 6.0354633
1.761206 1.8302159 6.2354631
1.761206 1.8302159 6.435463
1.761206 1.8302159 6.6354632
1.761206 1.8302159 6.835463
1.761206 1.8302159 7.0354633
1.761206 1.8302159 7.2354631
1.761206 1.8302159 7.435463
1.761206 1.8302159 7.6354632
1.761206 1.8302159 7.835463
1.761206 1.8302159 8.0354633
1.761206 1.8302159 8.2354631
1.761206 1.8302159 8.435463
1.761206 1.8302159 8.6354628
1.761206 1.8302159 8.8354635
1.761206 1.8302159 9.0354633
-0.0080590686 -0.33996862 0.23546313
-0.16307226 -0.21359254 0.23546313
-0.31808543 -0.087216467 0.23546313
-0.47309864 0.039159622 0.23546313
-0.62811178 0.16553569 0.23546313
-0.78312498 0.29191175 0.23546313
-0.93813819 0.41828787 0.23546313
-1.0931513 0.54466391 0.23546313
-1.2481645 0.67104 0.23546313
-1.4031776 0.79741603 0.23546313
-1.5581909 0.92379212 0.23546313
-1.7132041 1.0501683 0.23546313
-1.8682173 1.1765444 0.23546313
-2.0232303 1.3029203 0.23546313
-2.1782436 1.4292965 0.23546313
-2.3332567 1.5556725 0.23546313
-2.48827 1.6820487 0.23546313
-2.6432834 1.8084247 0.23546313
-2.7982962 1.9348007 0.23546313
-2.9533095 2.0611768 0.23546313
-3.1083226 2.1875529 0.23546313
-3.2633357 2.3139288 0.23546313
-3.4183493 2.4403052 0.23546313
-3.5733621 2.5666811 0.23546313
-3.7283757 2.6930573 0.23546313
-3.8833888 2.8194332 0.23546313
-4.0384016 2.9458094 0.23546313
-4.1934152 3.0721855 0.23546313
-4.3484282 3.1985614 0.23546313
-4.5034413 3.3249378 0.23546313
-0.0080590686 -0.33996862 0.23546313
-0.0080590686 -0.33996862 0.43546313
-0.0080590686 -0.33996862 0.63546312
-0.0080590686 -0.33996862 0.83546317
-0.0080590686 -0.33996862 1.0354631
-0.0080590686 -0.33996862 1.2354631
-0.0080590686 -0.33996862 1.4354632
-0.0080590686 -0.33996862 1.6354631
-0.0080590686 -0.33996862 1.8354632
-0.0080590686 -0.33996862 2.0354631
-0.0080590686 -0.33996862 2.2354631
-0.0080590686 -0.33996862 2.4354632
-0.0080590686 -0.33996862 2.6354632
-0.0080590686 -0.33996862 2.835463
-0.0080590686 -0.33996862 3.0354631
-0.0080590686 -0.33996862 3.2354631
-0.0080590686 -0.33996862 3.4354632
-0.0080590686 -0.33996862 3.6354632
-0.0080590686 -0.33996862 3.835463
-0.0080590686 -0.33996862 4.0354629
-0.0080590686 -0.33996862 4.2354631
-0.0080590686 -0.33996862 4.435463
-0.0080590686 -0.33996862 4.6354632
-0.0080590686 -0.33996862 4.835463
-0.0080590686 -0.33996862 5.0354633
-0.0080590686 -0.33996862 5.2354631
-0.0080590686 -0.33996862 5.435463
-0.0080590686 -0.33996862 5.6354632
-0.0080590686 -0.33996862 5.835463
-0.0080590686 -0.33996862 6.0354633
-0.0080590686 -0.33996862 6.2354631
-0.0080590686 -0.33996862 6.435463
-0.0080590686 -0.33996862 6.6354632
-0.0080590686 -0.33996862 6.835463
-0.0080590686 -0.33996862 7.0354633
-0.0080590686 -0.33996862 7.2354631
-0.0080590686 -0.33996862 7.435463
-0.0080590686 -0.33996862 7.6354632
-0.0080590686 -0.33996862 7.835463
-0.0080590686 -0.33996862 8.0354633
-0.0080590686 -0.33996862 8.2354631
-0.0080590686 -0.33996862 8.435463
-0.0080590686 -0.33996862 8.6354628
-0.0080590686 -0.33996862 8.8354635
-0.0080590686 -0.33996862 9.0354633
-0.0080590686 -0.33996862 0.23546313
-0.16307226 -0.21359254 0.23546313
-0.31808543 -0.087216467 0.23546313
-0.47309864 0.039159622 0.23546313
-0.62811178 0.16553569 0.23546313
-0.78312498 0.29191175 0.23546313
-0.93813819 0.41828787 0.23546313
-1.0931513 0.54466391 0.23546313
-1.2481645 0.67104 0.23546313
-1.4031776 0.79741603 0.23546313
-1.5581909 0.92379212 0.23546313
-1.7132041 1.0501683 0.23546313
-1.8682173 1.1765444 0.23546313
-2.0232303 1.3029203 0.23546313
-2.1782436 1.4292965 0.23546313
-2.3332567 1.5556725 0.23546313
-2.48827 1.6820487 0.23546313
-2.6432834 1.8084247 0.23546313
-2.7982962 1.9348007 0.23546313
-2.9533095 2.0611768 0.23546313
-3.1083226 2.1875529 0.23546313
-3.2633357 2.3139288 0.23546313
-3.4183493 2.4403052 0.23546313
-3.5733621 2.5666811 0.23546313
-3.7283757 2.6930573 0.23546313
-3.8833888 2.8194332 0.23546313
-4.0384016 2.9458094 0.23546313
-4.1934152 3.0721855 0.23546313
-4.3484282 3.1985614 0.23546313
-4.5034413 3.3249378 0.23546313
-0.16307226 -0.21359254 0.23546313
-0.16307226 -0.21359254 0.43546313
-0.16307226 -0.21359254 0.63546312
-0.16307226 -0.21359254 0.83546317
-0.16307226 -0.21359254 1.0354631
-0.16307226 -0.21359254 1.2354631
-0.16307226 -0.21359254 1.4354632
-0.16307226 -0.21359254 1.6354631
-0.16307226 -0.21359254 1.8354632
-0.16307226 -0.21359254 2.0354631
-0.16307226 -0.21359254 2.2354631
-0.16307226 -0.21359254 2.4354632
-0.16307226 -0.21359254 2.6354632
-0.16307226 -0.21359254 2.835463
-0.16307226 -0.21359254 3.0354631
-0.16307226 -0.21359254 3.2354631
-0.16307226 -0.21359254 3.4354632
-0.16307226 -0.21359254 3.6354632
-0.16307226 -0.21359254 3.835463
-0.16307226 -0.21359254 4.0354629
-0.16307226 -0.21359254 4.2354631
-0.16307226 -0.21359254 4.435463
-0.16307226 -0.21359254 4.6354632
-0.16307226 -0.21359254 4.835463
-0.16307226 -0.21359254 5.0354633
-0.16307226 -0.21359254 5.2354631
-0.16307226 -0.21359254 5.435463
-0.16307226 -0.21359254 5.6354632
-0.16307226 -0.21359254 5.835463
-0.16307226 -0.21359254 6.0354633
-0.16307226 -0.21359254 6.2354631
-0.16307226 -0.21359254 6.435463
-0.16307226 -0.21359254 6.6354632
-0.16307226 -0.21359254 6.835463
-0.16307226 -0.21359254 7.0354633
-0.16307226 -0.21359254 7.2354631
-0.16307226 -0.21359254 7.435463
-0.16307226 -0.21359254 7.6354632
-0.16307226 -0.21359254 7.835463
-0.16307226 -0.21359254 8.0354633
-0.16307226 -0.21359254 8.2354631
-0.16307226 -0.21359254 8.435463
-0.16307226 -0.21359254 8.6354628
-0.16307226 -0.21359254 8.8354635
-0.16307226 -0.21359254 9.0354633
-0.0080590686 -0.33996862 0.23546313
-0.16307226 -0.21359254 0.23546313
-0.31808543 -0.087216467 0.23546313
-0.47309864 0.039159622 0.23546313
-0.62811178 0.16553569 0.23546313
-0.78312498 0.29191175 0.23546313
-0.93813819 0.41828787 0.23546313
-1.0931513 0.54466391 0.23546313
-1.2481645 0.67104 0.23546313
-1.4031776 0.79741603 0.23546313
-1.5581909 0.92379212 0.23546313
-1.7132041 1.0501683 0.23546313
-1.8682173 1.1765444 0.23546313
-2.0232303 1.3029203 0.23546313
-2.1782436 1.4292965 0.23546313
-2.3332567 1.5556725 0.23546313
-2.48827 1.6820487 0.23546313
-2.6432834 1.8084247 0.23546313
-2.7982962 1.9348007 0.23546313
-2.9533095 2.0611768 0.23546313
-3.1083226 2.1875529 0.23546313
-3.2633357 2.3139288 0.23546313
-3.4183493 2.4403052 0.23546313
-3.5733621 2.5666811 0.23546313
-3.7283757 2.6930573 0.23546313
-3.8833888 2.8194332 0.23546313
-4.0384016 2.9458094 0.23546313
-4.1934152 3.0721855 0.23546313
-4.3484282 3.1985614 0.23546313
-4.5034413 3.3249378 0.23546313
-0.31808543 -0.087216467 0.23546313
-0.31808543 -0.087216467 0.43546313
-0.31808543 -0.087216467 0.63546312
-0.31808543 -0.087216467 0.83546317
-0.31808543 -0.087216467 1.0354631
-0.31808543 -0.087216467 1.2354631
-0.31808543 -0.087216467 1.4354632
-0.31808543 -0.087216467 1.6354631
-0.31808543 -0.087216467 1.8354632
-0.31808543 -0.087216467 2.0354631
-0.31808543 -0.087216467 2.2354631
-0.31808543 -0.087216467 2.4354632
-0.31808543 -0.087216467 2.6354632
-0.31808543 -0.087216467 2.835463
-0.31808543 -0.087216467 3.0354631
-0.31808543 -0.087216467 3.2354631
-0.31808543 -0.087216467 3.4354632
-0.31808543 -0.087216467 3.6354632
-0.31808543 -0.087216467 3.835463
-0.31808543 -0.087216467 4.0354629
-0.31808543 -0.087216467 4.2354631
-0.31808543 -0.087216467 4.435463
-0.31808543 -0.087216467 4.6354632
-0.31808543 -0.087216467 4.835463
-0.31808543 -0.087216467 5.0354633
-0.31808543 -0.087216467 5.2354631
-0.31808543 -0.087216467 5.435463
-0.31808543 -0.087216467 5.6354632
-0.31808543 -0.087216467 5.835463
-0.31808543 -0.087216467 6.0354633
-0.31808543 -0.087216467 6.2354631
-0.31808543 -0.087216467 6.435463
-0.31808543 -0.087216467 6.6354632
-0.31808543 -0.087216467 6.835463
-0.31808543 -0.087216467 7.0354633
-0.31808543 -0.087216467 7.2354631
-0.31808543 -0.087216467 7.435463
-0.31808543 -0.087216467 7.6354632
-0.31808543 -0.087216467 7.835463
-0.31808543 -0.087216467 8.0354633
-0.31808543 -0.087216467 8.2354631
-0.31808543 -0.087216467 8.435463
-0.31808543 -0.087216467 8.6354628
-0.31808543 -0.087216467 8.8354635
-0.31808543 -0.087216467 9.0354633
-0.0080590686 -0.33996862 0.23546313
-0.16307226 -0.21359254 0.23546313
-0.31808543 -0.087216467 0.23546313
-0.47309864 0.039159622 0.23546313
-0.62811178 0.16553569 0.23546313
-0.78312498 0.29191175 0.23546313
-0.93813819 0.41828787 0.23546313
-1.0931513 0.54466391 0.23546313
-1.2481645 0.67104 0.23546313
-1.4031776 0.79741603 0.23546313
-1.5581909 0.92379212 0.23546313
-1.7132041 1.0501683 0.23546313
-1.8682173 1.1765444 0.23546313
-2.0232303 1.3029203 0.23546313
-2.1782436 1.4292965 0.23546313
-2.3332567 1.5556725 0.23546313
-2.48827 1.6820487 0.23546313
-2.6432834 1.8084247 0.23546313
-2.7982962 1.9348007 0.23546313
-2.9533095 2.0611768 0.23546313
-3.1083226 2.1875529 0.23546313
-3.2633357 2.3139288 0.23546313
-3.4183493 2.4403052 0.23546313
-3.5733621 2.5666811 0.23546313
-3.7283757 2.6930573 0.23546313
-3.8833888 2.8194332 0.23546313
-4.0384016 2.9458094 0.23546313
-4.1934152 3.0721855 0.23546313
-4.3484282 3.1985614 0.23546313
-4.5034413 3.3249378 0.23546313
-0.47309864 0.039159622 0.23546313
-0.47309864 0.039159622 0.43546313
-0.47309864 0.039159622 0.63546312
-0.47309864 0.039159622 0.83546317
-0.47309864 0.039159622 1.0354631
-0.47309864 0.039159622 1.2354631
-0.47309864 0.039159622 1.4354632
-0.47309864 0.039159622 1.6354631
-0.47309864 0.039159622 1.8354632
-0.47309864 0.039159622 2.0354631
-0.47309864 0.039159622 2.2354631
-0.47309864 0.039159622 2.4354632
-0.47309864 0.039159622 2.6354632
-0.47309864 0.039159622 2.835463
-0.47309864 0.039159622 3.0354631
-0.47309864 0.039159622 3.2354631
-0.47309864 0.039159622 3.4354632
-0.47309864 0.039159622 3.6354632
-0.47309864 0.039159622 3.835463
-0.47309864 0.039159622 4.0354629
-0.47309864 0.039159622 4.2354631
-0.47309864 0.039159622 4.435463
-0.47309864 0.039159622 4.6354632
-0.47309864 0.039159622 4.835463
-0.47309864 0.039159622 5.0354633
-0.47309864 0.039159622 5.2354631
-0.47309864 0.039159622 5.435463
-0.47309864 0.039159622 5.6354632
-0.47309864 0.039159622 5.835463
-0.47309864 0.039159622 6.0354633
-0.47309864 0.039159622 6.2354631
-0.47309864 0.039159622 6.435463
-0.47309864 0.039159622 6.6354632
-0.47309864 0.039159622 6.835463
-0.47309864 0.039159622 7.0354633
-0.47309864 0.039159622 7.2354631
-0.47309864 0.039159622 7.435463
-0.47309864 0.039159622 7.6354632
-0.47309864 0.039159622 7.835463
-0.47309864 0.039159622 8.0354633
-0.47309864 0.039159622 8.2354631
-0.47309864 0.039159622 8.435463
-0.47309864 0.039159622 8.6354628
-0.47309864 0.039159622 8.8354635
-0.47309864 0.039159622 9.0354633
-0.0080590686 -0.33996862 0.23546313
-0.16307226 -0.21359254 0.23546313
-0.31808543 -0.087216467 0.23546313
-0.47309864 0.039159622 0.23546313
-0.62811178 0.16553569 0.23546313
-0.78312498 0.29191175 0.23546313
-0.93813819 0.41828787 0.23546313
-1.0931513 0.54466391 0.23546313
-1.2481645 0.67104 0.23546313
-1.4031776 0.79741603 0.23546313
-1.5581909 0.92379212 0.23546313
-1.7132041 1.0501683 0.23546313
-1.8682173 1.1765444 0.23546313
-2.0232303 1.3029203 0.23546313
-2.1782436 1.4292965 0.23546313
-2.3332567 1.5556725 0.23546313
-2.48827 1.6820487 0.23546313
-2.6432834 1.8084247 0.23546313
-2.7982962 1.9348007 0.23546313
-2.9533095 2.0611768 0.23546313
-3.1083226 2.1875529 0.23546313
-3.2633357 2.3139288 0.23546313
-3.4183493 2.4403052 0.23546313
-3.5733621 2.5666811 0.23546313
-3.7283757 2.6930573 0.23546313
-3.8833888 2.8194332 0.23546313
-4.0384016 2.9458094 0.23546313
-4.1934152 3.0721855 0.23546313
-4.3484282 3.1985614 0.23546313
-4.5034413 3.3249378 0.23546313
-0.62811178 0.16553569 0.23546313
-0.62811178 0.16553569 0.43546313
-0.62811178 0.16553569 0.63546312
-0.62811178 0.16553569 0.83546317
-0.62811178 0.16553569 1.0354631
-0.62811178 0.16553569 1.2354631
-0.62811178 0.16553569 1.4354632
-0.62811178 0.16553569 1.6354631
-0.62811178 0.16553569 1.8354632
-0.62811178 0.16553569 2.0354631
-0.62811178 0.16553569 2.2354631
-0.62811178 0.16553569 2.4354632
-0.62811178 0.16553569 2.6354632
-0.62811178 0.16553569 2.835463
-0.62811178 0.16553569 3.0354631
-0.62811178 0.16553569 3.2354631
-0.62811178 0.16553569 3.4354632
-0.62811178 0.16553569 3.6354632
-0.62811178 0.16553569 3.835463
-0.62811178 0.16553569 4.0354629
-0.62811178 0.16553569 4.2354631
-0.62811178 0.16553569 4.435463
-0.62811178 0.16553569 4.6354632
-0.62811178 0.16553569 4.835463
-0.62811178 0.16553569 5.0354633
-0.62811178 0.16553569 5.2354631
-0.62811178 0.16553569 5.435463
-0.62811178 0.16553569 5.6354632
-0.62811178 0.16553569 5.835463
-0.62811178 0.16553569 6.0354633
-0.62811178 0.16553569 6.2354631
-0.62811178 0.16553569 6.435463
-0.62811178 0.16553569 6.6354632
-0.62811178 0.16553569 6.835463
-0.62811178 0.16553569 7.0354633
-0.62811178 0.16553569 7.2354631
-0.62811178 0.16553569 7.435463
-0.62811178 0.16553569 7.6354632
-0.62811178 0.16553569 7.835463
-0.62811178 0.16553569 8.0354633
-0.62811178 0.16553569 8.2354631
-0.62811178 0.16553569 8.435463
-0.62811178 0.16553569 8.6354628
-0.62811178 0.16553569 8.8354635
-0.62811178 0.16553569 9.0354633
-0.0080590686 -0.33996862 0.23546313
-0.16307226 -0.21359254 0.23546313
-0.31808543 -0.087216467 0.23546313
-0.47309864 0.039159622 0.23546313
-0.62811178 0.16553569 0.23546313
-0.78312498 0.29191175 0.23546313
-0.93813819 0.41828787 0.23546313
-1.0931513 0.54466391 0.23546313
-1.2481645 0.67104 0.23546313
-1.4031776 0.79741603 0.23546313
-1.5581909 0.92379212 0.23546313
-1.7132041 1.0501683 0.23546313
-1.8682173 1.1765444 0.23546313
-2.0232303 1.3029203 0.23546313
-2.1782436 1.4292965 0.23546313
-2.3332567 1.5556725 0.23546313
-2.48827 1.6820487 0.23546313
-2.6432834 1.8084247 0.23546313
-2.7982962 1.9348007 0.23546313
-2.9533095 2.0611768 0.23546313
-3.1083226 2.1875529 0.23546313
-3.2633357 2.3139288 0.23546313
-3.4183493 2.4403052 0.23546313
-3.5733621 2.5666811 0.23546313
-3.7283757 2.6930573 0.23546313
-3.8833888 2.8194332 0.23546313
-4.0384016 2.9458094 0.23546313
-4.1934152 3.0721855 0.23546313
-4.3484282 3.1985614 0.23546313
-4.5034413 3.3249378 0.23546313
-0.78312498 0.29191175 0.23546313
-0.78312498 0.29191175 0.43546313
-0.78312498 0.29191175 0.63546312
-0.78312498 0.29191175 0.83546317
-0.78312498 0.29191175 1.0354631
-0.78312498 0.29191175 1.2354631
-0.78312498 0.29191175 1.4354632
-0.78312498 0.29191175 1.6354631
-0.78312498 0.29191175 1.8354632
-0.78312498 0.29191175 2.0354631
-0.78312498 0.29191175 2.2354631
-0.78312498 0.29191175 2.4354632
-0.78312498 0.29191175 2.6354632
-0.78312498 0.29191175 2.835463
-0.78312498 0.29191175 3.0354631
-0.78312498 0.29191175 3.2354631
-0.78312498 0.29191175 3.4354632
-0.78312498 0.29191175 3.6354632
-0.78312498 0.29191175 3.835463
-0.78312498 0.29191175 4.0354629
-0.78312498 0.29191175 4.2354631
-0.78312498 0.29191175 4.435463
-0.78312498 0.29191175 4.6354632
-0.78312498 0.29191175 4.835463
-0.78312498 0.29191175 5.0354633
-0.78312498 0.29191175 5.2354631
-0.78312498 0.29191175 5.435463
-0.78312498 0.29191175 5.6354632
-0.78312498 0.29191175 5.835463
-0.78312498 0.29191175 6.0354633
-0.78312498 0.29191175 6.2354631
-0.78312498 0.29191175 6.435463
-0.78312498 0.29191175 6.6354632
-0.78312498 0.29191175 6.835463
-0.78312498 0.29191175 7.0354633
-0.78312498 0.29191175 7.2354631
-0.78312498 0.29191175 7.435463
-0.78312498 0.29191175 7.6354632
-0.78312498 0.29191175 7.835463
-0.78312498 0.29191175 8.0354633
-0.78312498 0.29191175 8.2354631
-0.78312498 0.29191175 8.435463
-0.78312498 0.29191175 8.6354628
-0.78312498 0.29191175 8.8354635
-0.78312498 0.29191175 9.0354633
-0.0080590686 -0.33996862 0.23546313
-0.16307226 -0.21359254 0.23546313
-0.31808543 -0.087216467 0.23546313
-0.47309864 0.039159622 0.23546313
-0.62811178 0.16553569 0.23546313
-0.78312498 0.29191175 0.23546313
-0.93813819 0.41828787 0.23546313
-1.0931513 0.54466391 0.23546313
-1.2481645 0.67104 0.23546313
-1.4031776 0.79741603 0.23546313
-1.5581909 0.92379212 0.23546313
-1.7132041 1.0501683 0.23546313
-1.8682173 1.1765444 0.23546313
-2.0232303 1.3029203 0.23546313
-2.1782436 1.4292965 0.23546313
-2.3332567 1.5556725 0.23546313
-2.48827 1.6820487 0.23546313
-2.6432834 1.8084247 0.23546313
-2.7982962 1.9348007 0.23546313
-2.9533095 2.0611768 0.23546313
-3.1083226 2.1875529 0.23546313
-3.2633357 2.3139288 0.23546313
-3.4183493 2.4403052 0.23546313
-3.5733621 2.5666811 0.23546313
-3.7283757 2.6930573 0.23546313
-3.8833888 2.8194332 0.23546313
-4.0384016 2.9458094 0.23546313
-4.1934152 3.0721855 0.23546313
-4.3484282 3.1985614 0.23546313
-4.5034413 3.3249378 0.23546313
-0.93813819 0.41828787 0.23546313
-0.93813819 0.41828787 0.43546313
-0.93813819 0.41828787 0.63546312
-0.93813819 0.41828787 0.83546317
-0.93813819 0.41828787 1.0354631
-0.93813819 0.41828787 1.2354631
-0.93813819 0.41828787 1.4354632
-0.93813819 0.41828787 1.6354631
-0.93813819 0.41828787 1.8354632
-0.93813819 0.41828787 2.0354631
-0.93813819 0.41828787 2.2354631
-0.93813819 0.41828787 2.4354632
-0.93813819 0.41828787 2.6354632
-0.93813819 0.41828787 2.835463
-0.93813819 0.41828787 3.0354631
-0.93813819 0.41828787 3.2354631
-0.93813819 0.41828787 3.4354632
-0.93813819 0.41828787 3.6354632
-0.93813819 0.41828787 3.835463
-0.93813819 0.41828787 4.0354629
-0.93813819 0.41828787 4.2354631
-0.93813819 0.41828787 4.435463
-0.93813819 0.41828787 4.6354632
-0.93813819 0.41828787 4.835463
-0.93813819 0.41828787 5.0354633
-0.93813819 0.41828787 5.2354631
-0.93813819 0.41828787 5.435463
-0.93813819 0.41828787 5.6354632
-0.93813819 0.41828787 5.835463
-0.93813819 0.41828787 6.0354633
-0.93813819 0.41828787 6.2354631
-0.93813819 0.41828787 6.435463
-0.93813819 0.41828787 6.6354632
-0.93813819 0.41828787 6.835463
-0.93813819 0.41828787 7.0354633
-0.93813819 0.41828787 7.2354631
-0.93813819 0.41828787 7.435463
-0.93813819 0.41828787 7.6354632
-0.93813819 0.41828787 7.835463
-0.93813819 0.41828787 8.0354633
-0.93813819 0.41828787 8.2354631
-0.93813819 0.41828787 8.435463
-0.93813819 0.41828787 8.6354628
-0.93813819 0.41828787 8.8354635
-0.93813819 0.41828787 9.0354633
-0.0080590686 -0.33996862 0.23546313
-0.16307226 -0.21359254 0.23546313
-0.31808543 -0.087216467 0.23546313
-0.47309864 0.039159622 0.23546313
-0.62811178 0.16553569 0.23546313
-0.78312498 0.29191175 0.23546313
-0.93813819 0.41828787 0.23546313
-1.0931513 0.54466391 0.23546313
-1.2481645 0.67104 0.23546313
-1.4031776 0.79741603 0.23546313
-1.5581909 0.92379212 0.23546313
-1.7132041 1.0501683 0.23546313
-1.8682173 1.1765444 0.23546313
-2.0232303 1.3029203 0.23546313
-2.1782436 1.4292965 0.23546313
-2.3332567 1.5556725 0.23546313
-2.48827 1.6820487 0.23546313
-2.6432834 1.8084247 0.23546313
-2.7982962 1.9348007 0.23546313
-2.9533095 2.0611768 0.23546313
-3.1083226 2.1875529 0.23546313
-3.2633357 2.3139288 0.23546313
-3.4183493 2.4403052 0.23546313
-3.5733621 2.5666811 0.23546313
-3.7283757 2.6930573 0.23546313
-3.8833888 2.8194332 0.23546313
-4.0384016 2.9458094 0.23546313
-4.1934152 3.0721855 0.23546313
-4.3484282 3.1985614 0.23546313
-4.5034413 3.3249378 0.23546313
-1.0931513 0.54466391 0.23546313
-1.0931513 0.54466391 0.43546313
-1.0931513 0.54466391 0.63546312
-1.0931513 0.54466391 0.83546317
-1.0931513 0.54466391 1.0354631
-1.0931513 0.54466391 1.2354631
-1.0931513 0.54466391 1.4354632
-1.0931513 0.54466391 1.6354631
-1.0931513 0.54466391 1.8354632
-1.0931513 0.54466391 2.0354631
-1.0931513 0.54466391 2.2354631
-1.0931513 0.54466391 2.4354632
-1.0931513 0.54466391 2.6354632
-1.0931513 0.54466391 2.835463
-1.0931513 0.54466391 3.0354631
-1.0931513 0.54466391 3.2354631
-1.0931513 0.54466391 3.4354632
-1.0931513 0.54466391 3.6354632
-1.0931513 0.54466391 3.835463
-1.0931513 0.54466391 4.0354629
-1.0931513 0.54466391 4.2354631
-1.0931513 0.54466391 4.435463
-1.0931513 0.54466391 4.6354632
-1.0931513 0.54466391 4.835463
-1.0931513 0.54466391 5.0354633
-1.0931513 0.54466391 5.2354631
-1.0931513 0.54466391 5.435463
-1.0931513 0.54466391 5.6354632
-1.0931513 0.54466391 5.835463
-1.0931513 0.54466391 6.0354633
-1.0931513 0.54466391 6.2354631
-1.0931513 0.54466391 6.435463
-1.0931513 0.54466391 6.6354632
-1.0931513 0.54466391 6.835463
-1.0931513 0.54466391 7.0354633
-1.0931513 0.54466391 7.2354631
-1.0931513 0.54466391 7.435463
-1.0931513 0.54466391 7.6354632
-1.0931513 0.54466391 7.835463
-1.0931513 0.54466391 8.0354633
-1.0931513 0.54466391 8.2354631
-1.0931513 0.54466391 8.435463
-1.0931513 0.54466391 8.6354628
-1.0931513 0.54466391 8.8354635
-1.0931513 0.54466391 9.0354633
-0.0080590686 -0.33996862 0.23546313
-0.16307226 -0.21359254 0.23546313
-0.31808543 -0.087216467 0.23546313
-0.47309864 0.039159622 0.23546313
-0.62811178 0.16553569 0.23546313
-0.78312498 0.29191175 0.23546313
-0.93813819 0.41828787 0.23546313
-1.0931513 0.54466391 0.23546313
-1.2481645 0.67104 0.23546313
-1.4031776 0.79741603 0.23546313
-1.5581909 0.92379212 0.23546313
-1.7132041 1.0501683 0.23546313
-1.8682173 1.1765444 0.23546313
-2.0232303 1.3029203 0.23546313
-2.1782436 1.4292965 0.23546313
-2.3332567 1.5556725 0.23546313
-2.48827 1.6820487 0.23546313
-2.6432834 1.8084247 0.23546313
-2.7982962 1.9348007 0.23546313
-2.9533095 2.0611768 0.23546313
-3.1083226 2.1875529 0.23546313
-3.2633357 2.3139288 0.23546313
-3.4183493 2.4403052 0.23546313
-3.5733621 2.5666811 0.23546313
-3.7283757 2.6930573 0.23546313
-3.8833888 2.8194332 0.23546313
-4.0384016 2.9458094 0.23546313
-4.1934152 3.0721855 0.23546313
-4.3484282 3.1985614 0.23546313
-4.5034413 3.3249378 0.23546313
-1.2481645 0.67104 0.23546313
-1.2481645 0.67104 0.43546313
-1.2481645 0.67104 0.63546312
-1.2481645 0.67104 0.83546317
-1.2481645 0.67104 1.0354631
-1.2481645 0.67104 1.2354631
-1.2481645 0.67104 1.4354632
-1.2481645 0.67104 1.6354631
-1.2481645 0.67104 1.8354632
-1.2481645 0.67104 2.0354631
-1.2481645 0.67104 2.2354631
-1.2481645 0.67104 2.4354632
-1.2481645 0.67104 2.6354632
-1.2481645 0.67104 2.835463
-1.2481645 0.67104 3.0354631
-1.2481645 0.67104 3.2354631
-1.2481645 0.67104 3.4354632
-1.2481645 0.67104 3.6354632
-1.2481645 0.67104 3.835463
-1.2481645 0.67104 4.0354629
-1.2481645 0.67104 4.2354631
-1.2481645 0.67104 4.435463
-1.2481645 0.67104 4.6354632
-1.2481645 0.67104 4.835463
-1.2481645 0.67104 5.0354633
-1.2481645 0.67104 5.2354631
-1.2481645 0.67104 5.435463
-1.2481645 0.67104 5.6354632
-1.2481645 0.67104 5.835463
-1.2481645 0.67104 6.0354633
-1.2481645 0.67104 6.2354631
-1.2481645 0.67104 6.435463
-1.2481645 0.67104 6.6354632
-1.2481645 0.67104 6.835463
-1.2481645 0.67104 7.0354633
-1.2481645 0.67104 7.2354631
-1.2481645 0.67104 7.435463
-1.2481645 0.67104 7.6354632
-1.2481645 0.67104 7.835463
-1.2481645 0.67104 8.0354633
-1.2481645 0.67104 8.2354631
-1.2481645 0.67104 8.435463
-1.2481645 0.67104 8.6354628
-1.2481645 0.67104 8.8354635
-1.2481645 0.67104 9.0354633
-0.0080590686 -0.33996862 0.23546313
-0.16307226 -0.21359254 0.23546313
-0.31808543 -0.087216467 0.23546313
-0.47309864 0.039159622 0.23546313
-0.62811178 0.16553569 0.23546313
-0.78312498 0.29191175 0.23546313
-0.93813819 0.41828787 0.23546313
-1.0931513 0.54466391 0.23546313
-1.2481645 0.67104 0.23546313
-1.4031776 0.79741603 0.23546313
-1.5581909 0.92379212 0.23546313
-1.7132041 1.0501683 0.23546313
-1.8682173 1.1765444 0.23546313
-2.0232303 1.3029203 0.23546313
-2.1782436 1.4292965 0.23546313
-2.3332567 1.5556725 0.23546313
-2.48827 1.6820487 0.23546313
-2.6432834 1.8084247 0.23546313
-2.7982962 1.9348007 0.23546313
-2.9533095 2.0611768 0.23546313
-3.1083226 2.1875529 0.23546313
-3.2633357 2.3139288 0.23546313
-3.4183493 2.4403052 0.23546313
-3.5733621 2.5666811 0.23546313
-3.7283757 2.6930573 0.23546313
-3.8833888 2.8194332 0.23546313
-4.0384016 2.9458094 0.23546313
-4.1934152 3.0721855 0.23546313
-4.3484282 3.1985614 0.23546313
-4.5034413 3.3249378 0.23546313
-1.4031776 0.79741603 0.23546313
-1.4031776 0.79741603 0.43546313
-1.4031776 0.79741603 0.63546312
-1.4031776 0.79741603 0.83546317
-1.4031776 0.79741603 1.0354631
-1.4031776 0.79741603 1.2354631
-1.4031776 0.79741603 1.4354632
-1.4031776 0.79741603 1.6354631
-1.4031776 0.79741603 1.8354632
-1.4031776 0.79741603 2.0354631
-1.4031776 0.79741603 2.2354631
